-0.0689696,0.330504,-1.10644,11804
-0.0782011,0.0150096,-1.31083,11804
0.0019493,0.490039,-1.1805,11804
-0.247659,-0.109745,-1.80661,11804
0.330164,0.420764,-2.0425,11804
0.109663,0.150258,-1.84586,11785
-0.19296,-0.0116979,-1.85452,11785
0.111497,0.61788,-1.11456,11785
0.0583268,0.15063,-1.30765,11785
-0.113008,0.160097,-1.44655,11785
0.0480022,0.54433,-0.953154,11785
0.254931,0.231558,-1.10501,11785
0.77116,0.375244,-0.88888,11601
0.871885,0.46222,-0.82514,11601
0.889126,0.386911,-0.818918,11601
0.774269,0.448596,-0.891491,11601
0.78405,0.372376,-0.83246,11601
0.865082,0.294554,-0.890522,11601
0.785914,0.35244,-0.699198,11601
0.85372,0.451529,-0.842516,11601
0.773436,0.41906,-0.878487,11601
0.891323,0.387822,-0.821229,11601
0.888205,0.324962,-0.872514,11601
0.877749,0.384662,-0.836047,11601
0.861249,0.315536,-0.811322,11601
0.88775,0.380434,-0.84194,11601
0.779442,0.374377,-0.768808,11601
0.779786,0.40186,-0.897168,11601
0.808523,0.381136,-0.872685,11601
1.90308,-0.0212597,-0.247538,8049
0.761516,0.29886,-0.166586,7885
0.680403,0.318755,-0.27817,8049
0.820366,0.246142,-0.412233,8049
0.756607,0.295198,-0.221752,11507
0.593853,0.297268,-0.245684,11507
0.668032,0.302833,-0.27501,11507
0.738318,0.318399,-0.279834,11507
0.736832,0.288595,-0.210961,11507
0.678915,0.318432,-0.28827,11507
0.868546,0.264273,-0.459884,11520
0.764874,0.322913,-0.32174,11520
0.789721,0.318655,-0.285841,11520
1.94969,0.0170187,-0.334615,11520
1.70838,-0.00919218,-0.441869,11520
2.03425,0.0508098,-0.423262,11520
1.698,-7.8876e-05,-0.471707,11520
0.786525,0.261626,-0.435047,11520
0.794738,0.257824,-0.469307,11520
2.03325,-0.0692274,0.0410101,7885
0.67384,0.300645,-0.277863,11513
0.680999,0.307499,-0.274388,11513
0.779178,0.315366,-0.213045,11513
0.788766,0.328261,-0.456545,11547
0.738698,0.316848,-0.464574,11547
0.775138,0.319598,-0.470176,11547
0.611232,0.314935,-0.436814,11547
0.671073,0.323782,-0.462903,11547
0.78451,0.286408,-0.39149,11547
0.992563,0.304721,-0.640086,11547
0.69442,0.334065,-0.487015,11547
0.789625,0.259079,-0.433707,11547
1.52503,0.0835113,-0.568808,11547
1.76572,0.137049,-0.968117,11547
0.8313,0.348318,-0.579835,11547
1.78665,0.0484948,-0.993322,11547
1.89427,0.111198,-0.556449,11547
0.749785,0.330347,-0.332252,11547
0.790273,0.287814,-0.448754,11547
0.765801,0.334892,-0.334336,11547
0.799067,0.297071,-0.46536,11547
0.795678,0.326979,-0.435604,11513
0.716749,0.320073,-0.355873,11513
0.734297,0.305008,-0.413582,11513
0.723702,0.330832,-0.37502,11513
0.76746,0.336309,-0.384474,11513
0.833951,0.351323,-0.393383,11513
0.788323,0.291274,-0.400479,11513
0.727024,0.27125,-0.391682,11513
0.790057,0.323762,-0.432635,11513
0.697027,0.314716,-0.439478,11520
0.727019,0.323055,-0.442063,11520
0.721965,0.319046,-0.434844,11520
0.781943,0.33212,-0.454781,11520
0.736325,0.333964,-0.380334,11520
0.795775,0.312342,-0.280858,11520
0.773833,0.330221,-0.366216,11520
0.797834,0.311947,-0.493095,11520
0.780112,0.284981,-0.471216,11520
0.785937,0.32891,-0.462711,11520
0.78675,0.290673,-0.45532,11520
0.753459,0.312916,-0.417189,11520
0.800794,0.28012,-0.475967,11520
0.921998,0.385271,-0.605389,11560
0.708824,0.30561,-0.390266,11560
0.582111,0.292371,-0.414504,11560
0.807794,0.273942,-0.502831,11560
0.806944,0.260521,-0.475886,11560
0.674318,0.33166,-0.502038,11560
0.964713,0.339882,-0.616033,11560
0.588001,0.289593,-0.3427,11560
1.00452,0.350031,-0.604127,11560
1.01879,0.286802,-0.599827,11560
0.805023,0.278755,-0.493218,11560
1.48532,0.174049,-0.548979,11560
2.08046,0.0243797,-0.309958,8049
0.791216,0.322531,-0.308869,8049
1.92767,0.0158882,-0.331356,8049
2.05156,0.0252735,-0.308857,8049
1.93601,0.0268374,-0.165266,8049
0.74411,0.312144,-0.240206,7906
0.796566,0.308122,-0.286932,8049
1.95782,0.115462,-0.563307,11507
1.99915,0.0560346,-0.586146,11513
2.7907,0.135888,-0.567798,11513
0.679298,0.318552,-0.288266,11538
0.597269,0.29244,-0.346082,11538
1.00391,0.273017,-0.540133,11538
0.752773,0.297033,-0.400842,11538
0.580365,0.298922,-0.335232,11538
0.799428,0.284771,-0.482059,11538
0.738345,0.307185,-0.252089,11538
1.01977,0.289535,-0.621853,11538
1.0259,0.287723,-0.61082,11538
2.08296,-0.00249797,-0.0259668,7906
2.02485,-0.0254437,-0.0314831,7906
0.789082,0.306012,-0.4527,11513
1.01553,0.326208,-0.584569,11513
0.789168,0.25357,-0.440086,11513
0.7828,0.325286,-0.449416,11513
0.791618,0.290463,-0.457197,11513
0.759604,0.2176,-0.452612,11513
2.0014,0.0534038,-0.583086,11513
1.49321,0.113194,-0.532167,11513
0.76452,0.328352,-0.363353,11520
0.723168,0.286032,-0.393027,11520
0.747595,0.286644,-0.394108,11520
0.787246,0.301607,-0.444794,11520
1.01212,0.367042,-0.609049,11520
0.721506,0.306256,-0.396071,11520
0.848443,0.350778,-0.466583,11520
0.85751,0.335014,-0.357451,11520
0.780775,0.322021,-0.462314,11520
0.798968,0.280007,-0.475574,11520
1.00828,0.327299,-0.594853,11520
0.789875,0.290522,-0.450004,11520
0.780456,0.289042,-0.412406,11520
0.780803,0.321884,-0.449017,11520
0.78433,0.324737,-0.461118,11520
0.805377,0.276869,-0.421667,11513
0.785967,0.268169,-0.423765,11513
0.767391,0.312305,-0.351392,11513
0.850849,0.310307,-0.433451,11513
0.757177,0.333323,-0.380878,11513
0.747492,0.323865,-0.317034,11513
0.833186,0.298279,-0.41933,11513
0.787628,0.278001,-0.431066,11513
0.979361,0.245185,-0.465433,11560
0.927658,0.386,-0.602383,11571
0.897467,0.381923,-0.709901,11579
1.3938,0.268786,-0.796872,11571
1.00695,0.320853,-0.612112,11571
0.95182,0.365258,-0.597455,11571
0.91439,0.376744,-0.625307,11571
0.823834,0.387014,-0.574978,11571
0.988172,0.34407,-0.641826,11571
2.04717,0.350007,-1.62003,11571
0.912884,0.371001,-0.654997,11571
2.07169,0.187331,-0.553482,11571
2.30545,0.0985045,-0.653501,11571
2.20856,0.0283476,-0.615197,11571
0.996471,0.347621,-0.622204,11571
0.778802,0.319551,-0.435415,11571
-0.254866,0.470908,-0.203627,12642
-0.944002,-0.341077,0.848881,12642
0.159488,0.328384,-0.180158,12642
-0.751038,-0.345628,0.787507,12642
-0.667428,-0.391389,0.703928,12642
-0.150328,0.389887,0.554963,12642
0.102898,0.170578,-0.175486,12001
0.226233,0.272031,-0.518079,12001
0.151353,0.288033,-0.177833,12001
-0.297004,-0.0895508,-1.52661,11816
-0.00970861,0.5612,-1.07332,11816
-0.317771,-0.124754,-1.63083,11816
0.345287,0.566027,-1.44485,11816
0.172536,0.269656,-0.901965,11816
-0.0277936,0.555721,-0.94787,11816
-0.0207248,0.31313,-1.46622,11816
-0.0469218,-0.000621445,-1.22938,11816
0.0203581,0.391306,-1.32093,11816
-0.244861,-0.084632,-1.66551,11816
0.187424,0.388121,-1.3016,11816
-0.0535774,0.308055,-1.12476,11816
0.13922,0.530424,-1.42701,11816
-0.0418412,0.591069,-1.10229,11816
1.9535,0.111255,-0.564516,11547
1.67046,0.206096,-1.00507,11547
1.74191,0.148213,-0.995691,11547
1.82848,0.078489,-0.606079,11547
1.44206,0.0992512,-0.534243,11547
0.786755,0.256719,-0.43946,11547
0.793499,0.329702,-0.490396,11547
2.09493,0.285424,-1.37918,11547
0.805082,0.264663,-0.503349,11547
0.690114,0.30574,-0.338079,11547
0.787434,0.306699,-0.459218,11547
1.90705,0.129304,-0.973166,11547
1.8242,0.191645,-1.03064,11513
0.795052,0.261244,-0.464554,11547
1.58697,-0.00962813,-0.499006,11547
1.6025,-0.0160061,-0.487018,11547
1.60856,-0.00463853,-0.542021,11547
1.58142,-0.00102634,-0.53297,11547
0.783858,0.31602,-0.430845,11547
0.831501,0.394779,-0.813335,11586
0.803283,0.367834,-0.671969,11586
0.889489,0.399725,-0.851463,11586
0.797188,0.352492,-0.689266,11586
0.859355,0.456702,-0.815511,11586
0.8906,0.382915,-0.847681,11586
0.954129,0.393625,-0.71933,11586
0.850432,0.448459,-0.831981,11586
0.867492,0.323476,-0.889706,11586
0.85543,0.460274,-0.821385,11586
0.795561,0.361343,-0.684156,11586
0.90157,0.377015,-0.712061,11586
0.86865,0.32384,-0.891748,11586
0.776782,0.354269,-0.685081,11586
0.877545,0.402219,-0.843399,11586
0.836429,0.374967,-0.785099,11586
0.992602,0.389845,-0.764965,11586
0.791913,0.359871,-0.681431,11586
0.817222,0.386144,-0.669215,11586
0.804454,0.378134,-0.66908,11586
0.833611,0.395476,-0.817036,11586
0.913674,0.381404,-0.728858,11586
0.898148,0.30381,-0.850679,11586
0.876539,0.381712,-0.810749,11586
0.801463,0.351573,-0.704704,11586
0.998826,0.387898,-0.755213,11586
0.811577,0.356332,-0.701484,11586
0.976055,0.38242,-0.762749,11586
0.968362,0.376162,-0.816685,11586
0.776306,0.354162,-0.685023,11586
0.794707,0.359994,-0.684693,11586
0.786386,0.352329,-0.687665,11586
0.903097,0.307065,-0.870444,11586
0.221902,0.0666281,-0.542454,12001
0.229577,0.273271,-0.513142,12001
-0.019666,0.28032,-0.732925,8470
-0.539187,-0.235087,-0.341181,12001
0.198413,0.376769,-0.493081,12001
0.267172,0.263667,-0.487914,12001
-0.516814,-0.208046,-0.303267,12001
-0.516461,-0.210325,-0.309961,12001
-0.478826,-0.145355,-0.273663,12070
-0.466534,-0.200308,-0.306256,12070
-0.514863,0.0861121,-0.306156,12070
-0.264635,0.124162,-0.323973,12070
-0.48513,-0.0698294,-0.27236,12070
-0.477256,-0.215409,-0.283512,12070
0.506469,0.393907,-0.102239,12458
-0.0209961,0.367471,-0.672868,6601
-0.016626,0.334971,-0.674196,11828
-0.214924,-0.0932859,-1.78608,11816
0.0530692,0.320034,-1.54811,11816
-0.0722877,0.0308677,-1.33791,11816
0.104873,0.228817,-1.32245,11816
-0.0614665,-0.0110798,-1.25029,11816
0.155487,0.510486,-1.41032,11816
0.0664517,0.0951798,-1.5383,11816
0.0979473,0.374384,-1.36965,11816
0.00834452,0.116874,-1.63712,11816
0.144508,0.552608,-1.43237,11816
0.783574,0.315678,-0.426557,11547
0.599583,0.307901,-0.336948,11547
0.222181,0.129605,-0.530052,12001
0.107442,0.171276,-0.175056,12001
-0.426774,-0.187841,-0.305398,12001
0.245105,0.325028,-0.164158,12500
-0.0102103,0.128994,0.527817,12568
0.169087,0.175125,-0.168554,12568
0.0635914,0.142852,0.408085,12568
0.0906907,0.155955,0.390713,12568
0.0976485,0.141187,0.501397,12568
0.270599,0.211822,-0.159328,12164
0.21034,0.190016,-0.534784,12164
0.243732,0.0950831,-0.548938,12138
0.164302,0.180395,-0.180788,12138
0.273409,0.286159,-0.156928,12138
0.290027,0.235525,-0.149667,12138
-0.490837,-0.195109,-0.310201,12138
0.969674,0.565612,-1.88756,11723
1.01101,0.507592,-1.98271,11723
0.939634,0.572236,-1.84801,11723
1.09113,0.14887,-1.38713,11621
0.787666,0.41495,-0.82407,11621
0.907179,0.383457,-0.724762,11586
0.857392,0.451489,-0.839872,11586
0.905634,0.33636,-0.839335,11586
0.928008,0.328051,-0.856221,11586
0.947593,0.39103,-0.709232,11586
0.927223,0.381905,-0.828266,11586
0.965462,0.318611,-0.817471,11586
0.948945,0.37712,-0.800828,11586
1.03947,0.676318,-1.83087,11614
1.17109,0.35471,-1.73241,11614
0.789123,0.418615,-0.811491,11601
1.03359,0.399263,-0.804637,11601
0.772404,0.424872,-0.853198,11601
0.974034,0.384351,-0.818383,11601
0.881527,0.381961,-0.838766,11601
0.788783,0.417768,-0.810304,11601
0.776657,0.411954,-0.845949,11601
0.864383,0.330668,-0.894413,11601
0.909585,0.314918,-0.885983,11601
1.0026,0.391476,-0.835583,11601
0.882264,0.322982,-0.866276,11601
0.926235,0.327035,-0.914878,11601
0.797995,0.354941,-0.709283,11601
1.00903,0.332158,-0.949277,11601
1.09699,0.35946,-1.67081,11601
0.858976,0.336576,-0.905351,11601
1.33531,0.176575,-1.32584,11601
1.50342,0.310003,-1.56046,11601
0.759171,0.329021,-0.340063,11555
0.773292,0.323107,-0.348338,11555
0.760162,0.314073,-0.424588,11555
0.325078,0.328491,-0.148399,12164
0.286355,0.276185,-0.155205,12500
0.514293,0.435861,-0.20065,12587
0.562563,0.176107,-0.0390746,12654
-0.54669,-0.172382,-0.33289,12001
-0.525294,-0.17633,-0.65204,12001
-0.525986,-0.176944,-0.323172,12001
-0.550716,-0.235766,-0.337392,12001
-0.620599,0.0258759,-0.403713,12001
0.835497,0.393534,-0.814413,11614
1.02636,0.382089,-0.913429,11614
0.779666,0.395455,-0.899765,11614
0.782429,0.412231,-0.854894,11614
0.908865,0.358925,-0.818849,11614
0.803017,0.423853,-0.79393,11614
0.90842,0.58064,-1.63226,11614
1.08591,0.27421,-1.56774,11614
0.939534,0.398357,-0.887608,11614
1.03535,0.430016,-1.73843,11614
0.989855,0.67893,-1.93021,11614
1.15367,0.20544,-1.82267,11614
1.48271,0.246785,-1.52194,11614
1.11015,0.426868,-1.68334,11614
0.962178,0.372917,-0.858172,11614
0.773563,0.40833,-0.848582,11614
0.128715,0.282238,-0.56226,12001
-0.480855,-0.0116545,-0.746794,12001
0.118667,0.344833,-0.190724,12009
-0.106936,0.264522,-0.752999,11828
1.00971,0.38313,-1.79336,11738
1.06175,0.216134,-1.85981,11738
1.04842,0.41318,-1.60738,11738
1.0025,0.492392,-1.96811,11738
0.943985,0.363916,-1.57795,11738
1.08006,0.575414,-2.36272,11738
-0.534684,-0.23826,-0.338577,12009
-0.561667,-0.196524,-0.600276,12009
-0.514002,-0.206514,-0.309752,12009
-0.538251,-0.188667,-0.598435,12009
0.223631,0.0662811,-0.53975,12009
0.939178,0.620299,-1.71454,11747
1.01253,0.397559,-1.89332,11747
0.903505,0.381265,-0.710273,11586
0.325497,0.409248,-1.04238,11816
-0.0417764,-0.0850074,-2.09392,11816
0.0153613,0.545141,-1.01793,11816
0.268166,0.461361,-1.80162,11816
-0.0872502,0.597968,-1.09851,11816
-0.026212,0.323265,-1.43504,11816
0.0427627,0.138744,-1.48944,11816
0.068201,0.110142,-1.51562,11816
-0.0232041,0.321862,-1.43018,11816
0.0770651,0.289749,-0.972812,11828
-0.0556599,0.272658,-0.733591,11828
0.0387017,0.288426,-0.992048,8434
-0.282673,0.56794,-0.984945,11828
-0.0163764,0.302252,-1.0679,11828
-0.0808506,0.27703,0.412655,12577
-0.350869,0.101812,0.682608,12654
0.338772,0.4037,-0.15676,12559
-0.400165,-0.0302051,0.698791,12577
0.209815,0.155808,0.42283,12587
-0.0783642,0.178632,0.365181,12654
-0.3492,0.212102,-0.509578,12009
0.781193,0.42664,-0.896556,11614
1.01676,0.659367,-1.74422,11614
1.7629,0.259165,-1.55064,11586
2.02182,0.277734,-1.62456,11586
2.08356,0.367014,-1.52243,11586
2.08066,0.284314,-1.66057,11586
0.896963,0.340646,-0.82944,11614
0.907628,0.381697,-0.70402,11579
0.99147,0.395375,-0.786516,11579
0.824586,0.264223,-1.4951,11614
0.769159,0.285579,-1.1974,11614
0.196376,0.289104,-0.170253,12049
0.227204,0.230428,-0.532345,12146
0.215158,0.21011,-0.521609,12146
0.767326,0.366572,-0.856833,11738
0.823011,0.482983,-0.848875,11738
0.704585,0.414035,-0.938361,11738
0.539713,0.485649,-0.866828,11738
0.670113,0.311347,-0.73275,11738
0.552822,0.473182,-0.818076,11738
0.70073,0.433477,-0.948309,11738
-0.090591,0.283482,-0.609916,6601
0.304825,0.326756,-0.151319,12138
0.283029,0.294822,-0.154743,12458
0.193322,0.26213,-0.168502,12542
0.155836,0.467337,-0.18506,12542
0.499311,0.25869,-0.800512,11804
0.418775,0.384497,-1.33634,11804
0.121964,0.365251,-1.17795,11804
0.419484,0.274267,-0.856927,11804
0.505937,0.284835,-0.907373,11804
0.312022,0.365546,-1.08125,11816
0.481325,0.422001,-0.102033,12609
0.563512,0.397704,-0.125587,12609
0.670284,0.194089,-0.0747086,12609
0.50941,0.427845,-0.0901849,12609
0.196283,0.175506,-0.155032,12525
-0.321317,0.180618,-0.450039,6601
-0.638043,0.0769988,-0.328073,12164
0.186903,0.28856,-0.173207,12164
0.188082,0.391483,-0.177032,12164
-0.0364869,0.276697,-0.937851,11785
1.27198,0.235975,-1.50933,11608
1.37109,0.223054,-1.74256,11608
1.34408,0.263231,-2.02089,11608
1.12553,0.359424,-1.73399,11608
1.15895,0.430558,-1.68893,11608
0.878536,0.401589,-0.84485,11608
0.857879,0.317605,-0.812802,11608
0.86992,0.392282,-0.833005,11608
0.878062,0.38529,-0.837092,11608
1.34557,0.229994,-1.62321,11608
1.16843,0.313377,-1.72245,11608
1.27964,0.225201,-1.47397,11608
1.21846,0.205115,-1.68958,11608
1.13905,0.192083,-1.74433,11608
1.35694,0.226275,-1.69558,11608
0.778297,0.355487,-0.692865,11608
-0.00107091,0.34289,-1.46764,11816
0.327545,0.208141,-1.04812,11816
-0.145547,0.274999,-0.954677,11816
-0.0411941,0.378243,-1.99425,11816
0.300787,0.443261,-1.63369,11816
-0.726691,-0.141846,-2.53529,11816
-0.013804,0.465673,-0.692311,11828
-0.224906,0.0680136,-1.65006,11828
0.0721707,0.124158,-1.46978,11828
0.0107002,0.515165,-1.49813,11828
-0.031276,0.569958,-1.04569,11828
1.3859,0.239357,-1.65393,11601
1.3673,0.178786,-1.34984,11601
1.75572,0.373495,-1.6054,11601
1.54805,0.247257,-1.59239,11601
1.3573,0.228667,-1.54982,11601
0.907148,0.334614,-0.837081,11601
0.869735,0.467133,-0.867926,11601
1.23321,0.239834,-1.37767,11601
1.68908,0.287931,-1.78444,11601
1.74063,0.248154,-1.58153,11601
1.68148,0.289051,-1.77116,11601
0.878282,0.38088,-0.831857,11601
1.95812,0.279732,-1.64678,11601
0.792133,0.350821,-0.682884,11601
0.799344,0.385811,-0.798014,11601
1.21893,0.219597,-1.69036,11601
1.37258,0.298264,-1.60851,11601
-0.232711,0.298613,-0.9079,11974
0.336202,0.403175,-0.153596,12458
0.245008,0.396,-0.168183,12458
0.493015,0.392431,-0.216391,12458
0.493228,0.412793,-0.10354,12559
0.513429,0.421511,-0.0937946,12559
-0.311496,-0.0139826,0.998294,12559
-0.372001,-0.100382,0.938693,12559
0.491676,0.396858,-0.218569,12559
0.466065,0.384573,0.276743,12525
0.501448,0.123682,0.214458,12525
0.193623,0.180672,-0.535193,12146
0.832318,0.323521,-0.586662,11538
0.928817,0.397106,-0.878695,11601
0.776776,0.451116,-0.895252,11601
0.892826,0.482483,-0.894505,11601
0.862188,0.396473,-0.827628,11601
0.901925,0.39096,-0.831844,11601
0.772479,0.37651,-0.893343,11601
0.876666,0.383741,-0.832934,11601
0.870573,0.315819,-0.82594,11601
0.898055,0.307247,-0.859635,11601
0.930816,0.331103,-0.858604,11601
0.776075,0.449686,-0.889291,11601
0.917567,0.515138,-0.905445,11601
0.796969,0.392812,-0.814625,11601
0.765931,0.37221,-0.874218,11601
0.954546,0.332992,-0.881164,11601
0.804219,0.360707,-0.733263,11601
0.865833,0.45669,-0.820265,11601
0.776618,0.353922,-0.689311,11601
0.847992,0.386588,-0.795089,11601
0.845772,0.3862,-0.805019,11601
0.779933,0.399691,-0.890095,11601
0.771918,0.387083,-0.878905,11601
0.875071,0.3971,-0.837543,11601
0.77875,0.416332,-0.887368,11601
0.787973,0.418753,-0.814186,11594
0.812771,0.382854,-0.879897,11594
0.838808,0.365779,-0.749865,11594
0.877314,0.337134,-0.811266,11594
0.782699,0.365027,-0.655689,11594
0.793021,0.394188,-0.812061,11594
0.797074,0.403467,-0.81753,11594
0.903473,0.349685,-0.82867,11594
0.876238,0.38952,-0.837559,11594
0.787411,0.417579,-0.81233,11594
1.16153,0.35168,-1.71514,11614
0.66726,0.495091,-0.81513,11738
0.611954,0.424445,-0.826896,11738
0.48907,0.496672,-0.872269,11738
0.692239,0.493261,-0.860256,11738
0.616409,0.420047,-0.811837,11738
0.678719,0.320038,-0.797926,11738
0.508021,0.510335,-0.951795,11738
0.500732,0.509579,-0.915443,11738
0.615641,0.420711,-0.81206,11738
0.674487,0.324726,-0.823315,11738
0.750996,0.514913,-0.88602,11738
0.561333,0.481359,-0.828602,11738
0.622696,0.418314,-0.820247,11738
0.79333,0.434195,-0.816714,11738
0.956277,0.352486,-0.816209,11601
0.977445,0.385764,-0.816307,11579
0.827518,0.248321,-0.415449,11571
1.00698,0.395895,-0.793687,11601
0.991583,0.357654,-0.581755,11571
0.801965,0.31504,-0.311408,11538
0.779736,0.329425,-0.362029,11538
1.01657,0.335463,-0.599474,11538
0.648211,0.344384,-0.28252,11538
0.808543,0.351764,-0.691311,11594
0.785802,0.433234,-0.816003,11594
0.866575,0.323207,-0.88902,11594
0.909275,0.33141,-0.84237,11594
0.891513,0.386301,-0.832572,11594
0.873671,0.380775,-0.804151,11594
0.8631,0.320533,-0.795952,11594
0.888436,0.335837,-0.853515,11594
0.859569,0.332592,-0.891916,11594
-0.0675023,0.56775,-0.941706,6601
-0.00208248,0.0930859,-1.25024,6601
-0.0406226,0.0396285,-1.29776,11804
-0.119114,0.335672,-1.51966,11804
-0.00480521,0.0828171,-1.48175,11804
0.0659105,0.106196,-1.44935,11804
0.150035,0.262984,-1.28159,11804
-0.258299,0.586456,-0.984393,11804
0.0687358,0.104394,-1.44066,11804
0.0151291,0.476113,-1.4036,11804
0.147766,0.359576,-1.26929,11804
0.187904,0.513927,-1.28012,11804
-0.176398,0.141902,-1.58863,11804
0.905002,0.342206,-0.837145,11586
1.33887,0.323262,-1.01803,11586
1.81911,0.247262,-1.59531,11586
1.77955,0.308543,-1.6561,11586
1.62125,0.329662,-1.50976,11586
0.896615,0.306658,-0.847681,11614
0.902647,0.338799,-0.837368,11614
0.805765,0.367837,-0.67417,11601
0.777622,0.349111,-0.692089,11601
1.0119,0.298626,-0.63128,11579
0.809286,0.382747,-0.673888,11579
0.896382,0.306156,-0.847465,11614
0.929638,0.306758,-0.883212,11614
0.863401,0.399797,-0.831168,11601
0.77209,0.376136,-0.892782,11601
0.857387,0.369879,-0.810209,11601
0.801777,0.455121,-0.925789,11601
0.7882,0.357026,-0.677296,11601
0.873699,0.376007,-0.828698,11601
0.816027,0.45641,-0.85161,11601
0.863121,0.323685,-0.885734,11601
0.80159,0.3767,-0.859573,11601
0.788051,0.356493,-0.6779,11601
0.861288,0.458024,-0.816246,11601
0.779054,0.357554,-0.710095,11601
0.77,0.374761,-0.886941,11601
0.902831,0.390293,-0.84861,11601
0.896779,0.386052,-0.842486,11601
0.779535,0.403031,-0.891647,11601
0.222008,0.192277,-0.534974,12146
0.196558,0.124926,-0.540076,12001
0.686475,0.504177,-0.88909,11723
0.686958,0.490361,-0.866856,11723
0.830851,0.511923,-0.878165,11723
0.782159,0.411869,-0.856406,11723
0.616038,0.422991,-0.817704,11723
0.60851,0.422687,-0.807547,11723
0.561967,0.317205,-0.884473,11723
0.783168,0.402744,-0.900673,11614
0.99429,0.420414,-1.61073,5268
0.802331,0.439191,-0.825821,11594
0.843237,0.476543,-0.836141,11594
-0.294916,0.399363,-0.921227,11828
-0.013179,0.277226,-0.682228,11828
-0.00532107,0.333155,-0.671644,11828
0.00237534,0.301969,-0.667069,11828
0.154858,0.278664,-0.86779,6590
-0.265928,0.535319,-0.917998,6601
-0.0579286,0.277606,-0.74285,11828
-0.0185335,0.374192,-0.677556,6601
-0.00555097,0.5595,-1.02216,8441
-0.0756436,0.6079,-1.14274,8434
-0.0254877,0.554108,-0.94282,8441
-0.167372,0.550081,-0.843253,11828
0.78632,0.287939,-0.445636,11555
1.59179,-0.0232655,-0.435959,11555
1.57071,-0.0194464,-0.431305,11555
1.5622,-0.00398313,-0.483266,11555
1.75016,-0.0393462,-0.495336,11555
1.59539,-0.00150329,-0.526496,11555
2.06926,0.0366535,-0.407736,11555
0.485232,0.245856,-0.374579,11555
1.62215,-0.0258734,-0.457958,11555
1.64076,0.0111947,-0.488698,11555
1.74493,-0.027282,-0.38884,11555
0.752156,0.328148,-0.325601,11555
0.533749,0.500934,-0.895091,11723
0.607195,0.416163,-0.819604,11723
1.10184,0.39481,-1.67168,11723
0.607849,0.43618,-0.834731,11723
0.607394,0.43237,-0.827314,11723
0.712517,0.439879,-1.01179,11723
0.787781,0.419523,-0.805841,11723
0.835891,0.378238,-0.913508,11723
0.789066,0.419608,-0.811291,11723
0.771927,0.480559,-0.917318,11614
1.01893,0.428833,-1.69596,11614
1.34311,0.241607,-1.58031,11614
1.03206,0.393229,-1.9583,11614
0.82887,0.293782,-0.40821,11547
0.808787,0.284122,-0.412592,11547
1.65621,0.0123043,-0.505327,11547
1.71535,-0.0136515,-0.436199,11547
1.76919,-0.0251628,-0.437446,11547
0.789451,0.328738,-0.307529,11547
0.948389,0.401779,-0.693661,11555
0.959948,0.38591,-0.615491,11555
0.775425,0.32861,-0.434916,11555
0.796434,0.253558,-0.475875,11555
0.578473,0.30376,-0.335568,11555
0.759963,0.315049,-0.423699,11555
0.767542,0.326511,-0.431955,11555
0.926962,0.396924,-0.688327,11555
0.961223,0.372611,-0.588383,11555
0.826873,0.320765,-0.60724,11555
0.720989,0.298366,-0.400415,11555
0.826466,0.248195,-0.41293,11555
0.79016,0.301808,-0.582972,11555
0.783379,0.323921,-0.289673,11555
0.761095,0.314903,-0.421539,11555
0.986392,0.346692,-0.601576,11555
0.998411,0.361376,-0.580719,11555
0.774012,0.318215,-0.41722,11555
0.57603,0.286517,-0.344129,11538
0.984864,0.373512,-0.706071,11538
0.709268,0.303026,-0.392076,11538
0.768453,0.307158,-0.480422,11538
1.00112,0.200432,-1.57199,11614
1.06894,0.418564,-1.6537,11614
1.06287,0.156669,-1.39286,11614
1.03634,0.444067,-1.8071,11614
1.14544,0.351649,-1.67788,11614
0.98842,0.480459,-1.64259,11614
0.992725,0.631451,-1.68175,11614
0.99817,0.641871,-1.78175,11614
1.18554,0.617609,-2.25028,11614
0.998192,0.643676,-1.77447,11614
1.08062,0.360099,-1.72534,11614
1.10349,0.433715,-1.86535,11614
1.00699,0.443164,-0.757549,11586
0.899619,0.334375,-0.832769,11586
0.875526,0.384315,-0.834111,11586
0.876522,0.378449,-0.831664,11586
0.878902,0.390349,-0.840441,11586
0.922488,0.384024,-0.70531,11586
0.800501,0.379574,-0.66707,11586
0.888481,0.323368,-0.866902,11586
0.968113,0.316601,-0.819521,11586
0.801895,0.39173,-0.65792,11586
0.865868,0.468636,-0.83347,11586
0.872267,0.375215,-0.826468,11586
0.839601,0.398038,-0.821621,11586
0.917093,0.380354,-0.692701,11586
1.32613,0.231733,-1.60419,11621
1.11339,0.27735,-1.98647,11621
1.49808,0.298193,-1.54754,11621
0.850824,0.334623,-0.882375,11621
0.888619,0.386969,-0.816959,11621
1.57942,0.244336,-1.63076,11621
1.61249,0.266267,-1.50386,11621
0.759445,0.274136,-0.409763,11538
1.01578,0.323505,-0.609589,11538
1.85783,0.0759219,-0.616029,11538
0.851504,0.34849,-0.307403,11538
0.796644,0.282161,-0.410817,11538
0.780823,0.322811,-0.446149,11538
1.00434,0.34308,-0.595278,11538
0.797481,0.29418,-0.480776,11538
0.882071,0.266934,-0.509084,11538
2.15145,0.131152,-0.565125,11538
1.82305,0.117065,-0.533394,11538
0.802355,0.251095,-0.465956,11538
0.773443,0.331015,-0.354316,11538
0.782502,0.309912,-0.429508,11538
1.3562,0.241105,-1.60669,11608
1.20049,0.209169,-1.65739,11608
1.10442,0.212612,-1.67692,11608
1.16945,0.215488,-1.59426,11608
1.1785,0.318658,-1.74005,11608
1.15526,0.3169,-1.68938,11608
1.68069,0.26002,-1.55581,11608
0.852171,0.335012,-0.885146,11608
1.58165,0.290293,-1.63527,11608
1.68257,0.328515,-1.56223,11608
1.57893,0.291706,-1.63293,11608
0.890961,0.385293,-0.846831,11608
1.73706,0.327048,-1.6139,11608
1.52483,0.284761,-2.1098,11608
0.776645,0.396825,-0.895521,11608
0.896908,0.339878,-0.833442,11608
0.774058,0.421359,-0.882876,11608
1.20153,0.220026,-1.65562,11608
1.12918,0.19899,-1.74199,11608
0.850491,0.447224,-0.815293,11608
0.859619,0.314762,-0.803528,11608
0.869878,0.320566,-0.874516,11608
0.800247,0.416,-0.734222,11608
1.37927,0.244691,-1.77137,11608
1.38742,0.225241,-1.77129,11608
0.776631,0.438834,-0.894063,11608
0.865164,0.331672,-0.894908,11608
0.777722,0.414043,-0.849495,11608
0.852525,0.485835,-0.848775,11608
1.31467,0.246995,-2.09169,11614
1.24089,0.264541,-1.95726,11747
0.472019,0.334745,-0.990019,11747
0.526719,0.314877,-0.820568,11747
0.447308,0.391667,-0.939506,11747
0.472719,0.486847,-0.84402,11747
0.508065,0.321533,-0.878245,11747
0.574631,0.313109,-0.828581,11747
0.829293,0.489056,-0.859945,11747
0.212295,0.223719,-0.516196,12086
0.189215,0.319852,-0.172595,12086
0.228649,0.0406236,-0.543884,12086
0.226567,0.0737137,-0.539209,12086
0.0135161,0.355775,-0.762354,12086
-0.0311327,0.320198,-0.730467,12086
-0.963393,0.10644,-3.88621,11840
-0.144919,0.28987,-1.2509,11840
-0.177295,0.552782,-0.847941,11840
-0.0182134,0.118763,-1.5032,11840
-0.0241801,0.368145,-0.634019,11840
-0.286181,-0.0991613,-1.95648,11840
-0.0161398,0.315214,-0.712195,11840
0.964493,0.665057,-1.88262,11738
1.03335,0.665712,-1.86129,11738
1.01925,0.512278,-2.02664,11738
1.17352,0.201661,-1.86003,11738
1.06901,0.260697,-1.76879,11738
0.957346,0.353375,-0.812596,11601
0.957084,0.353563,-0.813506,11601
0.901566,0.381505,-0.726164,11601
0.873249,0.388397,-0.834766,11614
0.66795,0.324329,-0.812565,11614
0.894443,0.385031,-0.840862,11614
0.760451,0.485505,-0.896744,11614
0.121248,0.367227,-0.184378,12070
0.113988,0.340854,-0.187045,12049
-0.181121,-0.0512882,0.92142,12559
-0.478409,-0.392013,1.06656,12559
-0.348356,0.0197601,0.929592,12559
-0.309066,0.0293,0.864676,12559
-0.267719,0.00572387,0.878197,12559
-0.359421,-0.0138095,0.94989,12559
0.0815961,0.139313,0.521453,12559
-0.369616,-0.0429012,1.06056,12559
-0.371913,-0.0117999,0.928608,12559
0.249278,0.32087,-0.161897,12138
-0.525645,-0.244597,-0.331698,12001
0.144277,0.176743,-0.17289,12001
-0.538235,-0.213376,-0.518462,12001
-0.517975,0.0284421,-0.554728,12001
-0.0240803,0.368603,-0.633616,11840
-0.545836,-0.238305,-0.342385,12001
0.222443,0.175058,-0.157389,12001
0.255262,0.318736,-0.163333,12001
0.195063,0.322526,-0.17178,12009
0.203157,0.378413,-0.506468,12009
0.240014,0.293157,-0.160554,12009
0.192438,0.28972,-0.169514,12001
0.778392,0.549399,-1.03564,11621
1.13994,0.427318,-1.69778,11614
1.10561,0.355468,-1.68512,11621
1.15981,0.154075,-1.38049,11621
1.12255,0.168234,-1.34724,11621
1.15591,0.394967,-1.69911,11621
-0.60602,-0.256373,-0.325662,12001
-0.506699,-0.198767,-0.292218,12001
-0.357317,0.437767,-0.212679,12001
-0.323547,0.147005,-0.26554,12001
-0.498968,-0.182568,-0.648113,12001
0.337199,0.259152,-0.138462,12138
0.516818,0.44054,-0.0863156,12587
-0.102025,0.400279,0.428561,12587
-0.0945011,0.245699,0.416299,12587
0.0586821,0.41511,0.416899,12587
0.0671243,0.136045,0.470342,12587
-0.465475,-0.149261,-0.280878,12138
-0.0215525,0.364717,-0.639264,11828
0.569573,0.315332,-0.861678,11747
0.556613,0.322002,-0.943452,11747
1.02569,0.670699,-1.84395,11723
1.16535,0.431426,-1.74557,11723
0.722975,0.534043,-1.05159,11723
0.0544223,0.0885402,-1.50405,11840
-0.0838666,0.333976,-1.17057,11840
-0.275445,0.713252,-1.28612,11840
-0.00388552,0.1086,-1.61552,11840
-0.125277,0.02081,-1.41347,11840
0.0412913,0.0930867,-1.39966,11840
-0.307034,0.578011,-1.00106,11840
0.109817,0.661173,-1.48858,11816
0.00238728,0.122679,-1.69591,11816
0.107405,0.155862,-1.52052,11816
0.0859502,0.304434,-1.35233,11816
0.0839953,0.234214,-1.58818,11816
0.368496,0.194827,-0.957233,11816
0.121251,0.085241,-1.01585,11816
0.35288,0.211444,-0.989466,11816
1.23193,0.270444,-1.90661,11601
1.39216,0.238135,-1.66845,11621
1.11549,0.391647,-1.70518,11621
1.16035,0.390306,-1.69682,11621
1.06918,0.420485,-1.6721,11621
0.961523,0.662375,-1.87038,11621
1.01032,0.649093,-1.74051,11621
1.10651,0.394749,-1.68229,11621
1.47591,0.300887,-1.78496,11621
1.56322,0.284666,-1.62163,11621
1.4008,0.153562,-1.33054,11621
0.852918,0.332344,-0.882908,11621
0.668659,0.322646,-0.804526,11621
0.67047,0.32506,-0.819929,11621
0.614664,0.417967,-0.80279,11747
0.834817,0.484468,-0.851977,11747
0.732381,0.476441,-1.13824,6180
1.05299,0.44276,-1.83275,6482
0.607851,0.422274,-0.804863,11738
0.512942,0.506464,-0.955742,11738
0.540556,0.461441,-0.88306,11738
0.727571,0.465528,-1.09769,11738
0.605427,0.427232,-0.814316,11738
0.677583,0.326105,-0.838098,11738
0.496031,0.520883,-0.974684,11738
-0.484095,-0.145876,-0.274905,12138
0.225766,0.286316,-0.162222,12138
0.166011,0.177878,-0.178047,12138
-0.487572,-0.204504,-0.310503,12138
0.195139,0.324666,-0.177431,12138
1.0303,0.678626,-2.2212,11738
1.13676,0.191773,-1.73558,11738
0.154637,0.351209,-1.13101,11828
0.171482,0.268605,-0.903505,6601
0.0265556,0.388518,-1.31679,6601
0.490026,0.284931,-0.96205,11785
0.174243,0.351838,-1.0861,11828
0.0658638,0.256998,-1.33613,11828
0.0419452,0.276985,-1.36845,11804
0.064674,0.57873,-1.19986,11804
0.319757,0.42165,-1.57645,11804
-0.0249829,0.415997,-1.50445,11804
-0.112185,0.568471,-0.926698,11804
-0.00436837,0.281625,-1.446,11804
0.0530207,0.585083,-1.21512,11804
0.123908,0.409223,-1.19294,11804
0.377205,0.281108,-1.21761,11804
-0.581512,0.0937917,-1.75288,11804
0.144584,0.260509,-0.746356,6601
0.111726,0.266084,-0.77349,6601
0.340744,0.141643,-2.08567,8441
0.347858,0.411713,-1.94437,8441
0.338861,0.141771,-2.10138,8441
0.461639,0.363099,0.282536,12532
0.27751,0.216575,-0.171496,12532
-0.171524,0.272427,-0.794475,11974
-0.324416,-0.111651,-0.303336,12001
-0.589589,0.0241962,-0.552447,12001
-0.396422,-0.178509,-0.301183,12001
0.219212,0.218493,-0.526546,12001
0.151238,0.271519,-0.530475,12001
-0.0221933,0.576363,-1.12748,11804
-0.0341587,0.0139164,-1.20501,11828
-0.0300888,-0.0129325,-1.20341,8441
-0.0172638,0.127422,-1.47373,8441
-0.0705264,0.271384,-0.679678,11828
-0.0196957,0.355974,-0.660378,11828
-0.0208476,0.336506,-0.718022,11828
-0.0355761,0.280573,-0.734641,6601
-0.016159,0.329251,-0.684776,6590
-0.0237606,0.379527,-0.683266,6601
-0.326155,0.10975,-1.73626,8441
-0.0641467,0.338823,-1.14951,8441
0.00261529,0.298627,-1.07007,8441
-0.108463,-0.00979239,-1.2993,8441
-0.0810343,0.321598,-0.958236,11828
-0.0643236,0.309085,-1.14094,11804
-0.0568478,0.035504,-1.31908,11804
-0.0176586,0.282229,-1.46417,11804
0.0466239,0.122704,-1.57509,11804
0.245706,0.348924,-0.168524,12458
0.547305,0.422604,-0.198457,12515
0.20732,0.50978,-0.185339,12515
0.455348,0.375458,-0.145498,12515
0.490419,0.393862,-0.216206,12515
0.579904,0.412926,-0.111329,12515
-0.061314,0.544523,-0.819426,6619
-0.00327507,0.279133,-0.72861,11828
-0.0135086,0.270251,-0.679963,11828
-0.0814534,0.267996,-0.727984,11840
0.145829,0.286286,-0.173979,12070
0.266747,0.302015,-0.160471,12500
0.146267,0.174213,-0.167311,12138
-0.49032,0.0367772,-0.535188,12001
0.0418421,0.268412,-0.868759,8470
-0.333186,0.101265,-0.264532,12001
-0.21119,0.520568,-0.863502,11965
-0.347266,0.173738,-0.422006,12001
-0.0947121,0.469275,-0.738091,6601
-0.204107,0.573822,-0.955066,6601
-0.0200171,0.352974,-0.641534,6601
-0.01716,0.335682,-0.678164,6601
0.214996,0.204079,-0.519726,12001
0.23906,0.17996,-0.169792,12138
0.326451,0.394974,-0.14103,12458
-0.246308,0.0388295,0.831121,12577
-0.408048,-0.076846,0.845634,12577
-0.587383,-0.126334,0.992094,12577
0.0996032,0.139804,0.492295,12577
0.222448,0.217241,-0.522673,6619
0.221949,0.228688,-0.520891,6619
0.206433,0.274576,-0.527267,12001
-0.0855114,0.260876,-0.74242,11840
-0.294097,0.504267,-0.575126,6601
0.221874,0.228883,-0.52389,6601
-0.430684,-0.126333,0.993229,12568
-0.32955,-0.0063286,0.936887,12568
-0.324596,-0.393918,0.907989,12568
-0.493694,-0.461195,1.03281,12568
-0.377548,-0.101494,0.946925,12568
-0.355079,-0.0925735,0.909073,12568
0.506885,0.398825,-0.105129,12568
0.179612,0.400706,-0.178901,12500
0.272208,0.299265,-0.159218,12164
0.484374,0.411703,-0.138547,12525
0.261108,0.466191,-0.169705,12525
0.484759,0.412406,-0.141177,12559
0.142258,0.512339,-0.197223,12477
0.327202,0.385334,-0.146272,12458
0.319484,0.382011,-0.153705,12458
0.240711,0.396976,-0.168658,12458
0.547554,0.431564,-0.118848,12477
0.482764,0.420612,-0.227949,12477
-0.0476922,0.310823,-1.10806,8441
-0.119322,0.573958,-0.932404,8441
-0.0508669,0.515141,-0.699082,6590
-0.238834,0.504756,-0.559753,6601
-0.182834,0.538644,-0.825515,6601
0.826052,0.493069,-0.854473,11723
0.797664,0.427765,-0.814309,11723
1.15186,0.395711,-1.69991,11723
-0.112481,0.286507,-0.62184,6601
-0.104378,0.489999,-0.551361,6601
-0.276631,0.250898,-0.897564,12070
-0.0377461,0.422327,-0.62171,12070
-0.0333715,0.27031,-0.65134,12070
0.232757,0.182492,-0.164812,12009
0.00208106,0.480695,-1.42574,11816
0.0588623,0.133339,-1.44704,11816
0.0463577,0.38673,-1.2728,11816
-0.438913,-0.167133,-1.70044,11816
0.456832,0.393428,-0.975361,11816
-0.103599,0.212072,-1.44454,11816
0.105409,0.278211,-0.551404,11965
-0.0176139,0.54328,-0.771009,11965
-0.310039,0.187688,-0.508658,6601
0.069158,0.287988,-0.974808,11828
-0.00839382,0.135853,-1.11014,11828
0.263553,0.387145,-0.174671,12542
0.446915,0.0816444,0.105517,12609
0.603034,0.177162,-0.052606,12609
0.602788,0.159374,0.0467571,12609
0.497642,0.139561,0.224862,12609
0.57999,0.202037,0.0817993,12609
0.573821,0.203541,0.0920485,12609
-0.0151566,0.29187,-0.615684,12049
-0.477792,-0.174858,-0.278265,12070
-0.0333559,0.340933,-0.733081,12070
0.171673,0.398835,-0.178985,12500
0.584802,0.416533,-0.0776505,12500
-0.640464,0.0932946,-0.0281744,13206
-0.30512,-0.152579,-0.299741,12070
-0.456941,-0.0221483,-0.265345,12070
-0.179841,0.470074,-0.765636,12070
-0.336269,0.18304,-0.475959,12070
-0.291186,-0.147153,-0.30286,12070
-0.331117,-0.134759,-0.299055,12070
-0.613858,-0.241188,-0.30659,12070
-0.260553,-0.160793,-0.313065,12070
0.325035,0.330312,-0.167136,12477
0.294615,0.245327,-0.153183,12138
0.261508,0.285462,-0.159062,12001
-0.362566,-0.178642,-0.301211,12009
-0.0208954,0.279418,-0.731968,11828
-0.0232521,0.332909,-0.698379,12001
0.566664,0.428314,-0.0649822,12500
0.247393,0.178408,-0.161774,12542
-0.085287,0.0287146,0.9108,12542
-0.543197,-0.171207,-0.329587,11974
-0.344866,0.198093,-0.467145,11974
-0.164879,0.49911,-0.836167,8441
0.19414,0.502522,-0.823342,11804
0.10759,0.458625,-1.22628,11804
0.197762,0.60311,-1.03238,11804
0.114897,0.618257,-1.10724,11804
0.126913,0.432833,-1.21896,11804
-0.0662836,0.200675,-1.39688,11804
0.285446,0.191176,-0.123288,13184
0.294213,0.166554,-0.124935,13184
-0.475625,-0.119517,-0.0203247,12990
-0.0348809,0.286444,0.373913,13148
-0.516158,0.0206237,-0.0215344,13148
-0.125748,0.237396,0.36064,13148
0.325825,0.283863,-0.150139,12138
0.0168132,0.318979,-1.00508,11828
-0.00860084,0.319599,-1.46048,11828
-0.262611,0.397293,-0.91017,11828
0.000100715,0.400497,-1.19338,11828
0.153141,0.27244,-0.920819,11828
-0.103385,-0.0289505,-1.46292,11828
0.255641,0.283888,-1.05904,11828
-0.0765512,0.0250566,-1.25575,11816
0.180486,0.386773,-1.31196,11816
0.020938,0.396035,-1.38474,11816
0.0703744,0.267443,-1.43256,11816
0.0262083,0.419695,-1.4125,11816
0.113266,0.378029,-1.35454,11816
0.0633588,0.315839,-1.44088,11816
0.0246831,0.115455,-1.52136,11816
0.0687637,0.403479,-1.24845,11816
0.22482,0.295424,-0.159083,12001
-0.506791,-0.224782,-0.300325,12001
-0.345206,-0.154502,-0.297735,12001
0.118382,0.341922,-0.187519,12001
-0.397848,-0.116256,-0.293433,12146
-0.297627,-0.0269028,-0.303773,12146
0.198898,0.204056,-0.533254,12146
-0.394577,-0.115572,0.940996,12577
0.143417,0.411149,0.437996,12577
0.478516,0.414271,-0.172556,12577
-0.427344,-0.121867,0.972192,12577
-0.161164,0.117252,0.610018,12577
0.265132,0.459578,-0.174132,12477
-0.227019,0.500272,-0.624131,11965
-0.0329495,0.293959,-0.611506,6601
-0.34033,0.179959,-0.456911,11965
0.409987,0.420142,-1.04835,11747
0.45649,0.33864,-1.03384,11747
0.509593,0.313254,-0.882766,11747
0.489658,0.446188,-0.878633,11747
0.520767,0.309975,-0.847294,11747
0.489195,0.330855,-0.923464,11747
-0.0406301,0.277255,-0.938757,8441
-0.0329675,0.310544,-1.44817,11828
0.0260367,0.274657,-0.72797,11828
-0.032245,0.403548,-0.631813,11828
-0.0230105,0.370025,-0.673657,6601
-0.2025,0.513319,-0.877735,6601
-0.0475022,0.29585,-0.642014,11828
-0.0331213,0.587601,-1.09974,8441
0.354509,0.374624,-0.979782,11816
0.190444,0.369495,-1.13466,11816
0.319367,0.414222,-1.05674,11816
0.237382,0.398421,-0.169287,12477
0.495692,0.409243,-0.170168,12477
0.49416,0.410341,-0.16925,12477
0.221237,0.23049,-0.527637,11965
-0.0368045,0.358182,-0.656264,11965
-0.0847192,0.370094,-0.681714,11965
0.197822,0.439531,-0.479814,11965
0.206545,0.434727,-0.47527,11965
1.18726,0.181661,-1.9221,11758
1.01394,0.466686,-1.71317,11758
0.351799,0.156589,-2.19984,6514
0.381631,0.44614,-1.78054,8441
-0.0111539,0.275352,-0.913453,8441
0.340864,0.166787,-2.3169,6452
0.306507,0.139729,-2.42704,6452
0.114551,0.656946,-1.41487,11816
0.104335,0.193624,-1.5972,11816
0.166606,0.525619,-1.31167,11816
-0.0295029,0.319719,-1.51937,11816
0.0548217,0.388602,-1.43777,11816
0.00252907,0.079023,-1.54502,11816
0.168383,0.472374,-1.36285,11816
0.0596908,0.269193,-1.58864,11816
0.0266494,0.32366,-1.51043,11816
-0.110519,-0.0851572,-1.86308,11816
0.102635,0.364947,-1.47116,11816
0.072465,0.155025,-1.60712,11816
-0.0156272,0.326901,-1.47755,11816
0.031766,0.0834253,-1.4976,11816
-0.768461,-0.138164,0.872728,12577
-0.674966,-0.285789,0.86995,12577
-0.40673,-0.0314659,0.798853,12577
-0.753738,-0.138985,0.857939,12577
-0.514392,-0.11305,0.93291,12577
-0.785474,-0.412264,0.847556,12577
0.323068,0.381362,-0.155782,12500
-0.367955,-0.153783,-0.344428,12049
-0.456647,-0.197598,-0.516005,12049
0.115132,0.138296,-0.132436,13172
0.26308,0.149436,-0.188524,13230
0.254556,0.148787,-0.19602,13230
0.305549,0.16179,-0.0878343,13052
0.270469,0.148573,-0.177025,13230
0.252552,0.319251,-0.161212,12009
0.0785643,0.116328,0.656933,12550
-0.0896913,0.0333139,0.772024,12550
-0.106991,-0.0443928,0.840161,12550
0.248853,0.293034,-0.161353,12550
0.48443,0.357915,0.257291,12550
0.433971,0.383863,-0.141331,12550
0.0210271,0.100055,0.653288,12550
-0.507772,-0.0688067,0.988994,12577
0.137715,0.411192,0.463317,12577
-0.497328,-0.108197,0.921806,12577
0.489798,0.415722,-0.169161,12577
-0.39317,-0.0986471,0.960662,12577
0.324965,0.330571,-0.150744,12138
-0.312553,-0.0954338,-0.292435,12086
-0.442157,-0.17761,-0.310245,12086
0.293333,0.378514,-0.149639,12164
0.238427,0.395067,-0.163726,12164
0.202001,0.27644,-0.168485,12138
0.250895,0.392312,-0.16795,12164
0.248208,0.386345,-0.167477,12164
0.18405,0.390872,-0.178126,12164
0.119656,0.465819,-0.195462,12500
0.0936328,0.508926,-0.20557,12500
-0.110857,0.490628,-0.205322,12500
0.323266,0.430525,-0.163492,12500
-0.738052,-0.132858,0.884765,12577
-0.0591532,0.125423,0.593024,12577
-0.769003,-0.410114,0.838399,12577
-0.843373,-0.47258,0.830852,12577
-0.658412,-0.299975,0.816729,12577
0.192093,0.322298,-0.169331,12009
-0.362966,0.0992448,-0.267012,11965
0.50822,0.351973,0.231698,12568
0.498621,0.352589,0.242675,12568
-0.465552,-0.260543,1.03481,12568
-0.420514,-0.417096,0.972828,12568
0.049088,0.141395,0.416697,12568
0.0279321,0.142464,0.464512,12568
0.337428,0.402806,-0.15359,12458
0.331545,0.404496,-0.152141,12458
0.456657,0.377504,-0.152406,12458
0.237233,0.39746,-0.167575,12458
0.563612,0.431433,-0.164205,12477
0.431073,0.440076,-0.24043,12500
0.488128,0.443542,-0.197529,12500
0.0952491,0.509503,-0.205087,12500
0.510114,0.410723,-0.110118,12559
0.56088,0.423342,-0.143778,12500
0.48582,0.420693,-0.229634,12500
-0.534741,-0.166388,-0.328945,12070
-0.471848,-0.228983,-0.279252,12070
-0.332989,0.40224,-0.896833,12086
-0.0283818,0.339583,-0.730746,12086
-0.554892,0.081226,-0.296146,12070
-0.44808,-0.192486,-0.287657,12070
-0.437438,-0.273302,1.02493,12568
-0.460529,-0.301849,1.02475,12568
-0.45641,-0.395446,1.0436,12568
-0.461689,-0.456917,1.04601,12568
-0.404107,-0.125512,0.987204,12568
0.154201,0.156195,0.417899,12568
-0.459817,-0.305706,1.02352,12568
0.546853,0.422149,-0.197932,12515
0.483606,0.421132,-0.228138,12515
-0.70781,-0.167636,-0.194843,13278
-0.458872,0.374518,-0.514802,13278
0.315074,0.156765,-0.083193,13052
0.48173,0.416052,-0.143509,12577
-0.352533,0.0897533,0.660674,12577
0.106231,0.176346,-0.18961,12577
-0.496891,-0.0908791,0.923539,12577
-0.424339,-0.125041,0.983058,12577
0.124861,0.514371,-0.194878,12515
0.49945,0.14051,0.226326,12515
0.0611529,0.393261,0.572744,12559
0.484096,0.394909,-0.21559,12559
0.54363,0.412209,-0.170122,12559
0.524998,0.422973,-0.145494,12559
-0.0889384,-0.0910229,0.834638,12559
-0.260181,-0.0679854,0.969184,12559
0.500726,0.421133,-0.196352,12559
0.0841281,0.248126,0.542663,12559
-2.87162,-0.805544,-0.384112,12049
-0.0473301,0.300762,-0.706086,12049
-0.580257,0.0769034,-0.292409,12049
0.0283136,0.294081,-0.626419,12049
0.243176,0.289669,-0.169505,12009
0.218523,0.230359,-0.528729,12009
-0.0214272,0.356075,-0.658988,6601
0.197845,0.376684,-0.492996,12001
-0.0227999,0.369983,-0.671084,11828
-0.225505,0.384594,-0.850481,12049
-0.455515,0.0860093,-0.407838,12049
-0.0259149,0.393166,-0.634193,12049
-0.542001,0.0280139,-0.547139,12049
0.131379,0.177011,-0.17859,12070
0.178423,0.396683,-0.179363,12458
0.456174,0.376081,-0.150695,12458
0.353653,0.378338,-0.17199,12458
0.238729,0.184501,-0.162993,12559
-0.327006,-0.262198,1.09833,12559
-0.0986235,0.0372037,0.844705,12559
0.249819,0.213348,-0.160238,12559
0.243576,0.399068,-0.170467,12559
-0.144842,-0.0759726,0.883121,12559
0.255082,0.286794,-0.158111,12001
0.256343,0.295476,-0.172024,12049
0.246265,0.342721,-0.162715,12049
0.121663,0.270193,-0.1843,12070
-0.966823,-0.326726,0.621021,13009
-0.487514,0.297598,0.279624,13009
-0.712351,-0.280026,0.891741,12609
-0.77901,-0.140502,0.873376,12609
0.66197,0.156354,-0.0744457,12609
-0.538516,-0.24087,0.77944,12609
-0.097294,0.23031,0.369415,12814
0.334243,0.164179,-0.150483,13236
-0.15679,-0.0333419,-0.277728,12990
0.110403,0.144411,0.471535,12568
0.0870602,0.156922,0.393251,12568
0.292104,0.213258,-0.166696,13236
-0.120998,0.177856,-0.370359,13236
-0.723945,-0.211324,0.395532,12609
-0.950571,-0.364431,0.309547,12990
-0.615133,-0.163136,0.302825,12990
-0.479583,0.402487,0.121811,12990
-0.806042,-0.0798608,0.614672,12990
-0.758266,-0.219699,0.542645,12990
-0.767896,-0.19623,0.55205,12990
-0.00536328,0.194753,0.434955,12990
-0.775627,-0.464874,0.697511,12654
-0.596901,-0.199766,0.564943,12609
-0.131733,0.286059,0.406004,12609
-0.656203,-0.117724,0.839401,12577
-0.0882404,0.308257,0.386995,12577
-0.0636886,0.186761,0.362092,12577
-0.722504,-0.352044,0.851837,12577
-0.69791,-0.435942,0.824227,12577
-0.755913,-0.134053,0.86784,12577
-0.54129,0.0692585,-0.553343,12773
-0.482333,-0.0125758,-0.769139,12773
-0.0432845,0.378991,-0.692451,12773
-0.39513,0.035697,-0.291885,12773
0.510575,0.421267,-0.194462,12773
-0.379695,0.199792,-0.495904,12759
0.367485,0.396528,-0.113866,12759
-0.64334,0.046094,-0.348282,12759
-0.439418,-0.206637,-0.0384029,13351
-0.662587,-0.260653,0.172133,13351
-0.587641,-0.244164,0.00250125,13351
-0.555581,-0.234233,0.00410109,13351
-0.582661,-0.251934,0.00855452,13351
-0.536874,-0.223046,0.268577,13335
-0.495981,-0.236826,0.0345619,13351
-0.549591,-0.252616,0.0313851,13351
-0.523459,0.0428993,-0.00195092,13395
-0.614799,-0.309874,0.202429,13395
-0.781586,-0.361309,0.531628,12990
-0.855168,-0.148627,0.439029,12990
0.445744,0.38085,-0.124813,12618
0.120802,0.459509,-0.203304,12618
0.320347,0.147681,-0.0763367,13052
0.295221,0.159465,-0.0876316,13052
0.332632,0.152887,-0.0777413,13052
0.319799,0.148228,-0.0721336,13019
-0.14733,-0.00963043,-0.272237,12990
0.341886,0.192294,-0.146499,12587
-0.3568,0.449125,-0.235038,12587
0.482314,0.420608,-0.176794,12587
0.0552968,0.276227,0.408006,12587
-0.0853489,0.249962,0.410251,12587
0.111692,0.453955,-0.215269,12500
0.28733,0.383769,-0.148702,12500
0.13744,0.460979,-0.205347,12500
0.482727,0.420667,-0.226894,12500
0.0869431,0.509886,-0.203541,12500
0.283845,0.206244,-0.116504,13184
0.273768,0.208959,-0.165487,13230
0.308778,0.147734,-0.0601084,13019
0.311189,0.147652,-0.0736636,13019
0.304453,0.149888,-0.0726137,13019
-0.626141,0.470019,0.0303681,13206
0.277427,0.197582,-0.147073,13206
0.337407,0.161368,-0.125239,13206
-0.478411,0.0417425,0.218223,13052
0.371133,0.447827,-0.179219,12525
0.455341,0.422283,-0.223524,12525
0.497918,0.120453,0.225861,12525
0.511108,0.399239,-0.21943,12525
0.304298,0.222473,-0.159919,12138
-0.568501,0.463614,0.0681571,13184
0.309192,0.15635,-0.0763562,13052
-0.466048,0.106958,-0.0723239,13052
0.215206,0.167539,-0.143454,13184
0.263155,0.293851,-0.163902,12532
0.253883,0.294167,-0.160631,12532
0.300177,0.332632,-0.153266,12532
0.30796,0.396384,-0.154279,12532
0.532302,0.442948,0.271493,12532
0.30808,0.350485,-0.154216,12532
0.108588,0.235657,0.397082,12654
0.246429,0.165227,0.282162,12654
0.261687,0.220125,0.303199,12654
0.0633526,0.265905,0.404846,12654
-0.0462632,0.280516,-0.737027,11840
0.160621,0.178067,-0.173202,12070
-0.49876,-0.197866,-0.296535,12070
0.149984,0.387101,-0.515067,12070
-0.520506,-0.166915,-0.264746,12070
-0.449254,-0.15737,-0.282708,12070
0.225511,0.177733,-0.161327,12654
-0.780845,-0.0922107,0.602574,12654
0.249497,0.0890657,-0.549269,12138
-0.389664,0.123759,-0.193412,12990
-0.619151,0.0509601,0.0455182,13285
-0.789805,0.0717938,-0.250737,13292
-0.599067,-0.352392,0.615614,12609
-0.631768,-0.251246,0.80199,12609
-0.600483,-0.336835,0.542159,12609
-0.581163,-0.370058,0.536149,12609
-0.72759,-0.0725894,0.616811,12609
-0.699708,-0.149069,0.587029,12609
-0.09052,0.288857,0.375162,12609
-0.722744,-0.250104,0.576046,12609
0.334842,0.148157,-0.0583046,13148
-0.167278,0.412964,-0.186282,13148
-0.729288,-0.187951,0.103902,13340
0.0627812,0.297563,-0.614425,12759
-0.160712,0.502137,-0.647368,12759
-0.183938,0.0518028,-0.724477,12759
-0.181187,0.524644,-0.651343,12759
-0.604111,-0.0235295,-0.92227,12759
-0.0903244,0.385005,0.518698,12642
-0.759628,-0.18924,0.550761,12990
-0.493246,0.410596,0.11923,12990
-0.00887399,0.194901,0.436202,12990
-0.486241,0.408888,0.120804,12990
-0.526515,0.391315,0.369278,12990
-0.761565,-0.221163,0.543487,12990
-0.771117,-0.129737,0.368075,12990
-0.698807,-0.307797,0.549007,12990
-0.817933,-0.0538679,0.388768,12990
-0.789382,-0.208087,0.356928,12990
0.0147095,0.131535,-0.333265,13249
0.0463452,0.139806,-0.318142,13230
-0.704747,5.77599e-05,0.306304,13148
-0.36407,0.473681,-0.234189,13148
-0.310985,0.0205027,0.312788,13148
0.308119,0.189799,-0.093805,13148
0.49674,0.129631,0.224406,12532
0.516823,0.416878,-0.167934,12532
0.21665,0.181714,-0.164374,12532
0.208897,0.131745,0.567144,12532
0.496471,0.138495,0.225353,12532
0.520737,0.401503,-0.119315,12532
0.482876,0.12259,0.247337,12532
-0.535866,-0.213812,-0.294553,12070
-0.838407,-0.475026,0.871109,12577
-0.782183,-0.146683,0.874907,12577
-0.51592,-0.095827,0.936406,12577
0.481066,0.420866,-0.226741,12477
0.559866,0.434693,-0.156507,12477
0.448851,0.402311,-0.141255,12477
0.106269,0.464144,-0.197947,12500
0.515817,0.398546,-0.220206,12500
0.509005,0.434068,-0.214827,12500
-0.276863,0.00504881,0.604745,12587
0.504697,0.415528,-0.183461,12587
0.321563,0.342938,-0.154749,12587
0.03496,0.230495,0.447536,12587
