-0.596044,0.13922,-0.286199,4736
-2.19262,0.0144455,-0.812644,4736
-2.37065,-0.541602,-0.695695,4736
-1.2233,0.266162,-1.18041,4736
-2.62314,-0.596231,-0.81198,4736
-0.816257,-0.357221,-1.0348,3954
-0.739931,0.21932,-1.72733,2103
-0.14262,0.50334,-1.73022,2103
0.146579,-0.288017,-0.749451,1803
0.111196,-0.467506,-0.177274,7454
-1.18879,0.192032,-1.03963,4736
-1.37936,0.148038,-1.31867,4736
-6.09703,-0.703749,-0.765514,4736
-1.31087,0.0444411,-1.30477,4736
-1.35352,0.147029,-1.30495,4736
-1.31958,0.211501,-1.24599,4736
-1.1349,0.265116,-1.16527,4736
-0.788961,0.284349,-1.33419,4408
-0.246305,0.294957,-0.559675,4408
-0.437984,0.290585,-0.736725,4346
-0.407905,-0.330776,-0.671706,4067
0.484712,0.496097,-2.75976,4067
0.45639,0.460224,-2.48032,2798
0.520186,0.289299,-1.81822,5996
0.49194,0.406769,-1.88956,5996
0.797399,0.271584,-1.71537,5996
-0.345695,0.678114,-3.60748,6108
0.957763,0.279133,-0.931787,5782
0.888171,0.189487,-0.740007,5782
0.969096,0.483896,-0.867156,5782
0.953641,0.278033,-0.931728,5782
0.912203,0.383059,-0.889639,5782
0.299201,0.266566,-0.941265,5782
1.0254,0.307976,-0.930828,5782
0.908245,0.196347,-1.19766,5782
0.906738,0.315463,-0.864053,5782
0.869434,0.371553,-0.894458,5782
0.445121,0.357004,-1.07256,5800
0.531192,0.217428,-1.05918,5800
0.305459,0.261463,-1.06408,5800
0.427787,0.350842,-1.05311,5800
0.326276,0.330517,-1.15364,5800
0.371014,0.247077,-0.979788,5800
0.362754,0.253568,-1.01013,5800
0.320158,0.24933,-0.96491,5800
0.29881,0.268365,-1.06101,5800
0.437689,0.26324,-1.02533,5800
0.301984,0.260906,-1.06451,5800
0.513136,0.186137,-1.00933,5800
0.383726,0.256334,-0.962973,5800
0.723386,0.530891,-1.52537,5996
0.714342,0.528416,-1.52222,5996
1.11513,-0.0572135,-1.57555,5996
0.508323,0.46487,-1.86226,5996
0.537133,0.538833,-1.89361,5996
0.495104,0.581841,-1.64674,5996
1.08354,0.561194,-1.50436,5996
0.311498,0.325948,-1.17528,5858
0.535353,0.216695,-1.04395,5858
0.412186,0.257783,-1.07571,5858
1.09824,0.439734,-1.58601,5858
0.907979,0.0443492,-2.19061,5986
0.362745,0.0818912,-3.08267,6041
0.465778,0.140618,-3.26172,6041
0.530744,0.130065,-3.03626,6041
0.500572,0.498979,-2.79364,6108
0.480919,0.438743,-2.4455,6041
0.633593,0.794084,-3.33908,6041
1.1167,0.343067,-2.47272,6016
0.332975,0.429631,-1.85234,5986
0.417637,0.40428,-1.95496,6016
1.04568,0.291684,-2.28336,6016
1.16143,0.237821,-2.34658,6016
0.809227,0.0213122,-2.38387,6016
0.523244,0.651537,-2.09265,6016
0.412362,0.48077,-2.0864,6016
0.451679,0.401343,-1.88892,6016
0.419207,0.262212,-1.05782,5908
0.515815,0.291133,-0.610927,5908
0.492607,0.232217,-1.03637,5908
0.373173,0.271178,-1.08593,5908
0.304785,0.261728,-1.06667,5833
0.473449,0.246537,-1.06369,5833
0.35244,0.241081,-0.999199,5833
0.350308,0.246563,-0.992533,5833
0.30938,0.324593,-1.17325,5833
0.322741,0.250318,-0.962933,5833
0.327153,0.250886,-0.972255,5833
0.541643,0.463421,-2.00132,5986
0.476454,0.444903,-2.0905,5986
0.500874,0.438204,-2.09642,5986
0.425479,0.520309,-2.09349,5986
0.413193,0.570333,-1.8814,5986
0.784641,0.389355,-2.40751,5986
0.778638,0.315942,-1.67401,5986
0.421773,0.572377,-2.08729,5986
0.585219,0.339958,-1.90331,5986
0.487007,0.366896,-2.11811,5986
0.473934,0.561921,-1.84254,5986
0.4248,0.627579,-1.90853,5986
0.649742,0.327831,-1.94289,5986
0.558868,0.420317,-1.91314,5986
0.513552,0.619991,-2.16443,5986
0.600751,0.359542,-2.23437,5986
0.986059,0.0215777,-1.8068,5986
0.403207,0.584098,-1.88577,5986
0.602165,0.517817,-2.21379,5986
0.462922,0.415453,-2.1258,5986
0.600439,0.343041,-1.91328,5986
0.567263,0.234581,-1.8584,5986
0.642815,0.215435,-1.90816,5986
0.497279,0.51122,-1.78956,5996
0.606051,0.343393,-1.91502,5996
1.11612,0.396206,-1.70014,5996
1.19831,0.232801,-2.28697,5996
0.645957,0.0983584,-1.66783,5996
0.624955,0.449403,-1.60414,5996
0.74575,0.228801,-2.02924,5996
0.590307,0.102425,-1.64664,5996
0.951773,0.394343,-1.72825,5996
0.900049,0.405778,-0.798301,5810
0.696587,0.324528,-0.768445,5810
0.705783,0.306386,-0.788012,5810
0.378977,0.268483,-1.08878,5810
0.385401,0.27027,-1.08688,5810
0.405418,0.257546,-1.05438,5810
1.49227,0.283284,-0.813678,5810
0.811371,0.293433,-0.75754,5810
1.08047,0.296402,-0.767858,5810
0.563819,0.231828,-0.748075,5810
0.444779,0.211856,-0.745453,5810
0.310134,0.278905,-1.10394,5782
0.393825,0.367998,-1.05596,5782
0.341149,0.337476,-1.16119,5782
0.390997,0.260189,-1.07262,5782
0.311868,0.27354,-1.05843,5782
0.311381,0.252464,-1.01089,5782
0.391136,0.275851,-1.08409,5782
0.400525,0.25496,-1.0428,5782
0.469019,0.250558,-1.0573,5782
0.31067,0.279226,-1.10324,5782
1.35934,-0.113702,-1.14804,5870
1.49425,-0.162873,-0.811898,5845
0.516102,0.341382,-0.711287,5870
0.430818,0.317647,-0.731652,5762
1.44355,-0.144726,-0.804626,5870
1.51898,-0.0706839,-1.33987,5870
0.48903,0.335492,-0.721277,5870
0.460866,0.254006,-1.08088,5845
0.454646,0.322455,-0.815012,5870
0.646167,0.302637,-0.746981,5870
0.532543,0.208896,-1.07026,5845
1.23117,0.236093,-1.66384,5870
0.326387,0.208623,-1.20196,5833
0.550758,0.198301,-1.06421,5870
0.318388,0.208929,-1.19952,5845
0.792241,0.165172,-0.770567,5845
0.675697,0.423064,-0.951656,5870
0.625782,0.351118,-0.832529,5870
0.409568,0.267579,-1.05212,5845
0.747641,0.238495,-0.993446,5845
0.707559,0.282119,-0.915764,5845
1.65818,0.208706,-1.22446,5845
0.365777,0.244931,-1.01081,5800
0.340649,0.268287,-1.08163,5870
0.347724,0.39184,-1.0162,5773
0.307571,0.264158,-1.06641,5773
0.367557,0.274027,-1.08802,5800
0.507763,0.219129,-1.05032,5800
0.545935,0.256669,-1.02601,5800
0.520194,0.607719,-3.11227,6041
-0.128086,0.0417684,-2.86844,6108
-0.608659,0.136467,-4.09812,6108
-0.577662,0.634964,-3.07122,6108
-0.463652,0.554397,-4.0288,6108
0.541142,0.376042,-2.15284,6041
0.553633,0.388274,-2.21573,6041
0.743039,0.357203,-0.523343,5895
0.520618,0.252025,-0.737749,5895
0.442594,0.172291,-1.10048,5908
0.470666,0.172611,-1.09919,5908
0.326471,0.270157,-1.00402,5908
0.35308,0.3063,-0.807707,5908
0.431367,0.376006,-0.650578,5908
0.510382,0.67272,-2.7653,6041
0.595775,0.428611,-2.48934,6041
0.508197,0.370873,-2.5942,6041
0.383036,0.375868,-2.25997,6041
0.358582,0.736543,-2.99009,6060
0.521914,0.434439,-2.74821,6041
1.7476,0.202857,-1.44717,5947
0.48003,0.252734,-1.08344,5947
0.604444,0.345803,-1.62087,5961
1.19037,0.397708,-1.7977,5961
1.15037,0.373179,-1.79502,5961
1.41298,0.51895,-1.39266,5961
1.24272,0.235496,-1.66803,5961
1.41628,0.593651,-1.42598,5961
1.20669,0.400123,-1.79905,5961
1.36522,-0.121239,-1.5295,5961
1.45781,0.466677,-1.43392,5961
1.33529,0.451892,-1.407,5947
1.02983,0.445815,-1.75808,5947
0.618637,0.440373,-1.6087,5947
0.627159,0.312039,-1.63966,5947
-0.552839,0.101453,-3.13564,6108
0.232203,0.802554,-4.74593,6060
-0.0316795,0.24296,-4.7093,6108
-0.467399,0.590034,-3.28078,6108
0.305756,0.272686,-1.05832,5845
0.386012,0.365487,-1.05564,5845
0.30902,0.322633,-1.18298,5845
0.321553,0.276334,-1.05791,5845
0.358019,0.24837,-1.0337,5845
1.40948,0.427687,-1.46528,5947
1.65418,0.690113,-1.5574,5947
2.12559,0.223528,-1.38821,5947
1.14407,-0.0871197,-1.48305,5947
1.51936,0.611492,-1.37916,5947
1.93588,0.50704,-1.56518,5947
0.347202,0.173505,-1.13308,5947
0.306435,0.268998,-1.02815,5947
0.314448,0.258012,-1.10582,5947
0.541922,0.212154,-1.06605,5947
1.42184,0.432096,-1.46807,5947
0.490725,0.254307,-1.07713,5947
1.18194,0.400927,-1.66678,5947
1.1842,-0.0940231,-1.49104,5947
0.403077,0.0738872,-3.04515,6041
0.386177,0.0832665,-2.7987,6041
0.442789,0.122447,-3.34598,6041
0.793095,0.788792,-3.67248,6041
0.702589,0.834851,-3.48319,6041
0.549088,0.131614,-3.08056,6060
0.570257,0.588393,-3.20093,6041
0.443802,0.0668207,-3.14547,6041
0.584341,0.112401,-3.1338,6041
0.405953,0.132683,-3.31419,6041
0.344459,0.241305,-1.00839,5782
0.406009,0.255677,-1.04334,5782
0.295175,0.261804,-1.06521,5782
0.400308,0.271827,-1.06129,5782
0.327256,0.245736,-0.963424,5782
0.301626,0.26594,-1.10073,5833
0.309964,0.268034,-1.05779,5833
0.614298,0.181102,-1.05555,5833
0.494437,0.270456,-1.04027,5833
0.410282,0.267041,-1.0487,5833
0.491181,0.267292,-1.0129,5833
0.310629,0.246608,-0.962977,5833
0.516058,0.281851,-0.982048,5833
0.305771,0.29306,-1.08842,5833
0.50276,0.260059,-1.08524,5833
1.01787,0.479548,-0.803485,5833
0.72361,0.326378,-0.730556,5833
0.853788,0.248594,-0.781786,5833
0.306809,0.269236,-1.06914,5833
0.607385,0.277102,-0.7646,5833
1.32674,-0.209379,-0.555129,5833
0.669819,0.313835,-0.74112,5833
1.47289,-0.169275,-0.659928,5833
1.47534,-0.170132,-0.657911,5833
1.65543,0.164996,-1.46672,5833
0.779133,0.161415,-0.782433,5833
0.511813,0.432429,-2.63053,6041
-0.532102,0.301366,-2.47176,6313
-0.599833,0.515257,-2.31084,6313
0.359103,0.0993698,-3.02951,6313
0.290491,0.798438,-4.65271,6313
0.479836,0.862559,-4.55751,6313
-0.610849,0.0181793,-3.23508,6313
0.03096,0.337274,-5.13507,6313
0.558966,0.632965,-4.69499,6313
-0.565143,0.0695289,-3.76424,6313
-0.539389,0.437427,-2.32896,6313
-0.119695,0.685111,-4.53416,6313
1.33341,-0.010335,-0.520674,5387
0.71869,0.428306,-0.585717,5387
1.57459,0.082076,-1.27476,5700
1.59147,0.0838842,-1.27953,5700
0.973183,0.446037,-0.567166,5387
0.706717,0.301617,-1.02644,5762
0.669858,0.256741,-1.04477,5700
0.649331,0.215992,-1.04816,5700
0.600961,0.271509,-0.962816,5700
0.703025,0.210921,-1.06289,5700
0.703352,0.274004,-0.994341,5700
0.842862,0.238373,-0.505547,5259
0.941019,0.258407,-0.984019,5717
0.687527,0.252734,-1.04706,5717
0.733622,0.230647,-1.06314,5717
0.574533,0.214672,-1.01606,5717
1.23059,0.337623,-1.00512,5717
1.55905,0.00552623,-0.662053,5433
1.12774,0.213176,-0.615063,5455
0.8909,0.196157,-0.49351,5580
0.853319,0.204949,-0.7401,5433
-0.120392,0.0548296,-2.89554,6060
0.757913,0.238698,-3.57361,6041
0.618806,0.435406,-2.9605,6108
0.504208,0.576424,-2.67776,6016
0.498524,0.435715,-2.43362,6041
0.820109,0.403036,-0.932107,5739
0.851132,0.268252,-0.84295,5739
0.69032,0.276969,-0.913883,5739
0.724458,0.361035,-0.812351,5739
1.04313,0.322524,-0.90633,5739
0.765385,0.298758,-1.04053,5739
0.345054,0.268261,-1.08224,5773
0.546092,0.336911,-0.840982,5773
1.25354,0.221233,-1.82167,5870
0.617885,0.436306,-0.807859,5773
0.536258,0.419362,-0.72024,5773
0.487981,0.427781,-0.812369,5870
0.31554,0.266559,-1.075,5773
0.487271,0.241287,-1.04306,5773
0.302058,0.269239,-1.06827,5773
0.258991,0.241354,-0.998533,5773
0.568118,0.426599,-0.830643,5773
0.587066,0.344568,-0.795861,5870
0.371797,0.270386,-1.0692,5773
0.396907,0.316377,-0.793463,5782
0.470297,0.350043,-0.772735,5782
1.08977,0.308738,-0.90372,5782
0.497741,0.217638,-1.02067,5782
0.722221,0.464869,-0.88551,5782
0.833298,0.365106,-0.830599,5782
0.494562,0.254359,-0.942645,5782
1.44855,0.227538,-0.941358,5782
1.53119,0.0352033,-0.846467,5782
0.938599,0.39369,-0.633377,5782
0.951655,0.259245,-0.943378,5782
0.654963,0.445117,-0.784859,5782
1.21226,-0.0418824,-0.551597,5433
1.63085,-0.0677337,-0.449359,5433
1.34066,0.195721,-0.480893,5403
0.871174,0.355433,-0.500315,5387
0.619272,0.398501,-0.594141,5433
0.635602,0.392474,-0.586171,5387
0.529114,0.148014,-0.183271,5217
0.663783,-0.119931,0.0186024,5217
0.624991,-0.151493,0.00347784,5217
0.423949,-0.130994,0.131394,5217
0.663279,-0.109738,-0.0579426,5217
0.30302,-0.2746,0.274504,5217
0.439159,0.0122816,-0.10576,5217
0.521463,0.154147,-0.216456,5217
0.515065,0.0863723,-0.264944,5217
1.41079,0.390141,-0.826652,5752
1.67484,0.128266,-1.46192,5752
1.58446,0.116794,-1.49697,5752
1.68644,0.12883,-1.46273,5752
0.517772,0.260359,-0.737033,5752
0.741995,0.281568,-1.0271,5752
0.498612,0.271464,-1.01757,5752
0.463459,0.248666,-1.05611,5752
0.539668,0.218387,-1.05098,5752
0.449254,0.097105,-0.354114,5387
0.207967,-0.156132,-0.0337891,5197
0.533343,0.0866027,-0.00068117,5217
0.317676,-0.242314,0.25536,5217
0.419493,-0.0100093,-0.105365,5217
0.606449,-0.338765,0.283253,5217
0.468308,0.149898,-0.0819831,5217
0.56948,0.181054,-0.144429,5387
0.517085,0.119425,-0.226743,5387
0.829415,0.48977,-0.976481,5686
0.501661,0.305431,-0.756508,5762
0.991258,0.293291,-0.912266,5870
0.824113,0.471387,-0.982436,5686
0.724455,0.23927,-1.05199,5700
1.63114,0.14507,-0.898065,5686
0.847197,0.406644,-0.598956,5686
0.706392,0.340834,-0.724101,5686
1.57764,0.116,-1.49818,5686
1.62738,0.178731,-1.46813,5686
1.58724,0.11589,-1.49959,5686
0.482089,-0.0145089,-0.403958,5217
0.571857,0.329494,-0.164405,5217
0.347351,0.151136,-0.210958,572
0.510404,0.302616,-0.227306,5217
0.335336,0.194287,-0.239814,5217
0.406645,0.0173087,-0.478377,5217
0.334349,0.209046,-0.238155,572
0.0818286,-0.0926736,0.0261491,5126
0.0952645,0.147684,-0.232836,5126
-1.26008,0.0338813,-0.0739429,4916
0.505525,0.213229,-1.06386,5700
1.24167,0.247152,-1.07423,5700
1.54549,0.171424,-0.876389,5700
0.876686,0.197936,-0.796364,5580
0.852818,0.202599,-0.731515,5580
1.08068,0.306699,-0.876144,5700
-1.28879,0.0631229,-0.0904325,4903
-0.308541,0.293034,1.66889,5145
-0.0632693,-0.329949,0.45986,5145
0.166385,-0.109899,-0.050083,5145
0.53117,-0.0416518,0.087998,5145
0.0407229,-0.321075,0.265396,5145
0.00172807,-0.206599,0.107856,5145
0.208235,-0.251553,0.223124,5145
0.0395343,-0.322943,0.26401,5145
-0.419997,0.296973,1.80143,5145
0.254986,0.161415,-0.112134,5163
0.218059,-0.150834,-0.0294991,5163
0.189542,0.215787,0.198761,5145
0.242527,-0.0710586,0.120132,5145
0.441762,-0.00283598,-0.106826,5145
0.247661,0.165334,-0.093452,5145
0.286839,0.0986818,-0.090948,5145
0.276891,0.080181,-0.185502,5145
0.120491,-0.135,0.0187003,5145
-0.167485,-0.356431,0.304193,5145
0.205088,-0.224596,0.158174,5145
-0.0116393,0.0622232,-0.0964931,5145
0.0833004,0.0751706,-0.150804,5145
-0.0973562,-0.290074,0.259476,5145
-0.0489233,0.0531927,-0.0747738,5145
-0.0201181,0.0544909,-0.114414,5145
0.444669,-0.0200496,-0.10837,5217
0.56051,-0.169113,0.0358384,5217
0.460595,0.149644,-0.0992858,5217
0.300875,-0.0871242,-0.147047,5217
0.339281,0.203874,-0.231022,5217
0.512961,0.269212,0.00698307,5217
0.525482,0.0859872,-0.0143321,5217
0.374543,-0.264763,0.591322,5217
0.428617,-0.0175393,-0.101618,5217
0.30839,-0.22204,0.226844,5217
-1.29191,0.0579956,-0.0670936,4600
0.0192353,-0.0835989,0.0513143,111
0.0342753,-0.106496,0.116775,610
0.528802,0.118075,-0.208434,5217
0.475701,0.104358,-0.0793758,5259
0.527648,0.0581213,-0.0234863,5145
0.629383,0.291601,0.117625,5259
0.500939,0.266272,-0.951649,5700
0.877981,0.276964,-0.835903,5580
0.876414,0.278188,-0.827913,5580
0.680281,0.234795,-0.665967,5568
0.461085,0.203052,-0.713418,5568
0.481271,0.2425,-0.639068,5568
0.913539,0.274254,-0.961601,5762
0.914958,0.34093,-0.718536,5762
0.808897,0.289727,-0.760597,5762
1.65739,0.216414,-1.50364,5762
0.903925,0.299641,-0.831949,5762
0.335291,0.207306,-0.243156,5197
0.250612,0.200978,-0.226126,5163
0.404598,0.0412554,-0.118955,5163
0.259671,-0.144745,0.122909,5126
0.180231,0.0790783,0.0103486,5126
-0.153725,-0.320869,0.236753,5126
-1.26351,0.0712508,-0.0900654,4600
-1.21631,0.127669,0.581631,4903
0.375494,0.212624,-0.452188,5387
0.584386,0.391801,-0.592339,5387
0.906065,0.230435,-0.480894,5259
0.83821,0.421084,-0.541454,5433
1.55695,0.00324377,-0.661085,5433
-1.47949,0.0597731,-0.0822225,4677
0.649969,-0.0986899,-0.00525703,5259
0.878142,0.1645,-0.49262,5568
0.85049,0.407343,-0.528264,5433
0.640517,0.0945853,0.0492872,5180
0.666542,-0.127876,0.000534465,5180
0.391932,0.0960623,-0.447622,5259
0.429805,0.102218,-0.398121,5259
0.442737,0.00915054,-0.106795,5259
0.423541,0.185688,-0.405743,5259
0.466434,0.164339,-0.114248,5259
0.464479,0.154761,-0.096589,5259
0.524023,0.103995,-0.220648,5259
0.342339,0.204143,-0.217318,5259
0.542042,0.252089,0.0433002,5259
0.770433,0.304704,0.123451,5259
0.510422,0.0956582,-0.261773,5259
0.517377,0.0838631,-0.25918,5259
0.602566,0.228786,-0.0565132,5259
0.634674,0.226899,-0.0472173,5259
0.51968,0.152907,-0.22289,5259
0.603784,0.104432,-0.0872991,5259
0.396058,0.0931959,-0.440832,5259
0.380237,0.121616,-0.157943,5259
0.371605,0.147726,-0.639987,5259
0.558938,-0.154546,0.00294497,5259
0.42505,0.0320163,-0.112142,5327
0.188611,-0.253238,0.277292,111
0.085062,0.0656704,-0.12415,5126
0.0233846,0.0637983,-0.0781856,111
0.0901041,-0.0998268,-0.0493785,111
-1.60733,-0.0417918,-0.168351,4677
1.55438,0.201349,-1.23247,5700
0.393218,0.126481,-0.474232,5387
0.406773,0.173664,-0.417541,5387
1.10594,0.219131,-0.615429,5387
-2.2499,0.0361678,-0.582277,4677
-1.63808,0.0588781,-0.12005,4677
0.380236,0.121594,-0.478107,5217
0.592158,0.295916,-0.58202,5387
0.503218,0.158027,-0.277337,5217
0.014621,0.0580773,-0.0772264,111
-0.000276909,-0.111597,0.0635758,610
-0.170898,-0.0675658,0.169039,111
-0.159543,-0.258481,0.168098,610
0.0113024,-0.0558992,0.0364039,610
0.132408,-0.20158,0.202052,5145
0.0883781,-0.124721,0.00378967,5145
0.0794622,-0.0919727,0.0174671,5145
0.0442703,-0.0744516,-0.0521554,5145
0.0820751,-0.0928531,-0.0999684,5145
0.0556621,-0.104038,0.142322,5145
0.0207849,-0.109946,0.0756362,5145
0.0129936,-0.0580105,0.116151,5145
0.0521884,-0.131875,0.233718,5145
0.254459,0.192498,-0.0943454,5163
-2.22213,-0.0328897,-0.344606,4831
0.536456,0.0882751,-0.0472403,5514
0.374673,0.152258,-0.639934,5514
0.681049,-0.175413,0.0824311,5514
0.447419,0.197281,-0.060671,5514
-1.7516,-0.0266155,-0.206695,4600
-2.67112,-0.513549,-0.128286,4666
-2.09049,-0.0477514,-0.5323,4677
0.0911039,-0.0403647,0.09569,5163
0.00844855,-0.0308629,0.053431,5163
0.00630383,-0.154323,0.0168329,5163
0.0137719,-0.0337897,0.0707035,5163
0.421512,-0.00598978,-0.0973577,5163
0.564929,0.32512,-0.153312,5387
0.401874,0.170548,-0.418944,5387
0.556294,0.331338,-0.158723,5259
0.580672,0.335783,-0.126529,5387
0.615982,0.360153,-0.0638296,5387
0.548853,0.320276,-0.192376,5259
0.841335,0.0982127,-0.523403,5259
-1.09581,0.169682,0.443467,4903
0.625358,0.118962,-0.599898,5433
0.564971,0.124879,-0.621571,5455
0.541214,0.317537,-0.752028,5580
0.809809,0.374247,-0.737993,5700
0.546019,0.32219,-0.750233,5700
-1.31568,0.0274224,-0.112596,4903
0.470996,0.103993,-0.088782,5197
0.474578,0.166463,-0.0989507,5197
0.273004,-0.133416,0.122959,5197
0.272575,-0.142761,0.105796,5197
0.21899,-0.0141983,0.0230734,5197
0.221761,-0.0014385,0.0510952,5197
0.339245,-0.0896521,-0.0467578,5197
0.100392,-0.127491,0.10358,5197
0.257433,-0.218776,0.164238,5197
0.344942,-0.108335,-0.0347358,5197
0.269536,-0.138523,0.0940096,5197
0.48647,0.10332,-0.124495,5526
0.514133,0.166425,-0.0578747,5327
0.406455,0.032207,-0.469907,5327
0.65852,0.403338,-0.559524,5387
0.90262,0.408559,-0.509469,5387
-1.41462,-0.169836,-0.0330656,4677
-4.96053,-0.732667,-0.427887,4677
0.732758,0.306926,-0.915621,5773
1.03943,0.333346,-0.947258,5700
0.548927,0.257727,-0.759524,5773
0.80508,0.263608,-1.00381,5700
0.805022,0.294896,-0.927429,5686
0.656434,0.242374,-1.03505,5686
-0.0200303,-0.17049,0.211797,610
-0.0567269,-0.0973225,0.283444,610
-0.00878279,0.0598925,-0.0842715,610
-0.0457084,0.0518591,-0.0476915,610
-0.00796287,0.0571473,-0.0784031,610
-0.0846135,-0.0541408,0.141712,111
0.079469,-0.0803482,0.0160802,111
0.0812888,0.0732803,-0.150285,5126
-0.209782,0.123476,-0.236149,363
-1.41681,-0.194452,0.00857035,4831
-0.682326,0.145038,-0.230786,4831
-1.39505,0.00923263,-0.0702751,4831
-1.26711,0.0759249,-0.112897,4600
0.884068,-0.00294238,-0.657003,5762
0.986781,0.331146,-0.877074,5700
0.598899,0.268994,-0.741541,5700
0.831239,0.47506,-0.984245,5686
0.999183,0.295489,-0.960188,5686
0.480735,0.261947,-1.00034,5700
-1.4218,-0.0132765,-0.0725239,4677
-1.27975,0.0585244,-0.0748935,4600
0.963778,0.261817,-0.943829,5700
0.744465,0.228829,-1.05475,5686
0.720506,0.464959,-0.884784,5700
0.878003,0.204026,-0.725616,5773
0.870608,0.21792,-0.701087,5700
0.868654,0.234849,-0.700556,5870
0.504587,0.258136,-0.743534,5739
1.0697,0.309028,-0.895535,5580
0.930319,0.298204,-0.947788,5700
0.538106,0.118889,-0.204021,5217
0.482442,0.260844,-0.96725,5773
0.934566,0.297839,-0.935555,5700
0.879658,0.220806,-0.779626,5700
0.964805,0.496084,-1.02746,5762
1.53786,0.218817,-1.19578,5686
1.55712,0.033404,-0.849006,5686
1.58999,0.125847,-1.42559,5686
1.58629,0.126647,-1.43793,5686
0.83922,0.396396,-0.60289,5686
0.816049,0.334464,-0.491847,5387
0.83054,0.220148,-0.509289,5259
-1.30402,0.0659509,-0.111658,4600
0.381162,0.146365,-0.637722,5327
0.515756,0.310328,-0.172245,5327
0.403824,0.16736,-0.399256,5327
0.542214,0.317559,-0.201721,5327
0.373214,0.14822,-0.639851,5327
0.662022,0.090927,0.0818605,5327
0.531954,0.0690002,-0.198583,5327
0.563888,0.230301,-0.109572,5327
0.518504,0.129792,-0.232692,5327
0.630127,-0.0570506,0.050773,5327
0.409689,0.121681,-0.451531,5327
0.538096,0.119348,-0.204148,5327
0.527666,0.0751296,-0.239608,5327
0.527896,0.232095,-0.077304,5327
0.546604,0.19107,-0.175517,5327
0.514018,0.130961,-0.209818,5327
0.589168,0.280768,-0.104759,5327
-0.0240964,-0.4024,0.419756,5197
0.342282,0.266316,-0.231136,5197
0.376272,-0.184679,0.196849,5197
0.298885,-0.136243,0.0767811,5197
0.140103,-0.26858,0.380471,5197
0.358028,-0.335545,0.311067,5197
0.325077,-0.24761,0.317584,5197
-3.52991,-0.372829,-0.204895,4677
-1.30547,0.0164535,-0.113455,4600
-1.29833,0.0896138,-0.144222,4600
-2.10963,-0.439039,-0.0911139,4600
0.148439,-0.24323,0.260668,111
-0.151194,0.0463528,-0.112864,263
-0.337708,-0.0968892,0.160758,233
0.209522,-0.0440967,0.0570345,111
0.0623771,0.0662689,-0.135712,111
0.0555003,0.0609194,-0.0897835,111
0.178339,-0.134605,0.0732913,111
0.0801002,-0.162944,0.26565,111
-0.0655183,-0.243142,0.279854,233
0.193784,-0.038357,-0.00604031,111
-0.0576907,0.0525343,-0.0930166,111
-0.328589,-0.114503,0.161913,233
-0.0822675,-0.0529568,0.150161,111
0.235416,-0.127836,0.0413931,233
0.0803576,-0.0673135,0.027258,111
0.0634019,-0.10917,0.0981809,111
0.124622,-0.25295,0.298464,263
0.0889874,-0.0922928,-0.0410992,111
-0.222672,0.036972,-0.133311,111
-0.210883,-0.0842053,0.161399,111
0.117588,-0.107528,-0.0524183,111
-0.164547,0.0440246,-0.128144,111
0.183039,-0.0369242,0.18187,111
0.0595959,0.0556269,-0.0528051,111
0.0490685,-0.078691,0.0566743,111
0.0206231,-0.0855225,0.0672693,111
0.000700747,-0.110269,0.0619643,111
0.0221893,0.0561242,-0.0585842,111
0.0262358,0.0590539,-0.0921359,610
-0.0150229,0.0512127,-0.0467427,111
-0.0670402,-0.0512412,0.148986,111
0.216507,-0.0374354,0.133892,111
-0.199657,0.0410809,-0.123927,111
-0.31963,-0.102266,0.150654,233
0.218371,-0.0493068,0.112464,111
0.0271613,-0.0272123,0.120149,263
0.0098523,-0.0231582,0.0814099,111
0.0195042,0.0628295,-0.126386,263
0.223989,-0.140336,0.0472727,111
0.186618,-0.0751303,0.165646,111
0.0144066,-0.0912168,0.0675524,610
0.0874254,-0.09313,0.0240292,111
0.107257,-0.11528,-0.029439,111
-0.00814657,-0.0152423,0.0318658,111
0.1785,0.0796293,0.00165615,111
0.0896881,-0.0953529,-0.0413573,111
0.218171,-0.0655001,0.124073,111
0.146394,-0.10372,-0.0350655,111
-0.0677343,-0.0505995,0.14824,111
-0.160893,0.0368188,-0.0934101,111
-0.202055,0.0546142,-0.265736,233
-0.0532292,0.0456377,-0.0640424,111
0.0809294,-0.163352,0.272603,111
0.0520883,0.0573067,-0.0730142,111
0.0951036,0.0602268,-0.0619325,111
-0.0449585,-0.110512,0.276059,111
-0.157033,0.0396752,-0.115562,111
-0.151333,0.0447717,-0.123273,111
-0.203058,0.0300211,-0.0462958,111
-0.207998,0.0405089,-0.0909943,111
0.105852,0.0852535,-0.217139,111
0.00949169,-0.0240651,0.0763032,111
0.0529291,0.0574995,-0.0686288,111
0.152805,-0.1126,-0.0054174,111
-0.0579115,-0.0965515,0.284341,111
0.0204823,-0.134614,0.0856521,263
0.171768,-0.0579068,-0.0430294,111
0.17496,-0.103498,-0.0549637,111
0.159635,-0.0797685,-0.0419423,111
-0.197424,0.109891,-0.245759,233
0.0582842,0.132389,-0.232728,263
-0.225584,0.0984763,-0.229954,263
0.19553,-0.0402021,0.00700388,111
-0.0478336,-0.14633,0.299055,233
0.0136609,-0.0723822,0.0951794,111
0.0467297,-0.185868,0.187149,111
0.0753605,-0.142635,0.191159,111
0.0864289,-0.089347,0.0115957,111
0.110704,-0.109077,-0.046134,111
-0.0113245,-0.0210005,0.0527511,111
0.239968,0.0778743,0.130739,111
-0.217114,0.0492506,-0.185595,111
-0.0622058,0.0545816,-0.0995829,111
0.121873,0.0823457,-0.148184,111
-0.00149734,-0.13302,0.0678624,111
0.0655459,0.148519,-0.226066,263
0.161586,-0.0605786,0.01161,111
0.0369067,-0.103486,0.105652,111
-0.0121339,-0.0376519,0.052605,111
0.0905213,-0.111949,0.101932,111
0.147604,-0.11179,-0.0170101,111
-0.0280692,0.0548077,-0.10032,233
0.0956955,-0.0978355,0.0130571,111
0.1705,-0.0587936,-0.0449649,111
0.172612,-0.0994886,-0.0579261,111
-0.233803,0.115465,-0.251532,233
-0.214396,-0.0895011,0.152798,111
0.0303671,-0.0292693,0.109279,111
0.0345662,-0.065411,0.0807332,111
0.182538,-0.071894,0.166407,111
-0.230331,0.0583765,-0.254493,111
0.178543,-0.0364539,0.160673,111
0.241813,0.074302,0.132979,111
-0.00934104,0.0547216,-0.0969699,263
0.105669,-0.211067,0.281471,111
0.242741,0.0918394,0.0991428,111
-0.0683579,-0.0430998,0.150732,111
0.16284,-0.0802698,-0.0235135,111
-0.222603,0.0622876,-0.257146,263
-0.164176,0.0435601,-0.0913178,111
0.0341631,-0.099879,0.101503,111
0.0336034,-0.101701,0.141545,233
0.166528,-0.0566121,0.00447505,111
0.0176113,-0.110369,0.0248185,111
-0.0217338,0.0481367,-0.0638006,111
0.276881,-0.145921,0.11298,111
-0.166415,0.0437868,-0.11637,111
0.0295646,-0.0304752,0.129505,111
-0.00142927,-0.134853,0.129253,610
-0.237848,0.116774,-0.239138,233
0.168931,-0.116366,-0.0391878,111
0.0186473,-0.15294,0.141346,111
0.0603254,0.0667552,-0.146741,111
-0.12437,0.0395436,-0.0871523,622
-0.157964,0.0469897,-0.132095,633
-0.154846,0.0711484,-0.277599,263
-0.0603747,-0.0422768,0.150471,233
0.0462612,0.060199,-0.0701986,233
-0.184326,0.111369,-0.241782,233
-0.193598,0.12687,-0.0685219,111
-0.154876,0.0718086,-0.28339,233
0.0140367,0.0539454,-0.0203918,263
0.0409557,0.0491271,0.00897122,233
0.0488674,0.0523037,-0.0596239,111
0.0659187,0.0730373,-0.18509,683
-0.310613,-0.0911349,0.138295,111
-0.170304,-0.0847366,0.195535,111
0.066802,-0.0610578,0.00260958,111
-0.00729648,-0.0317516,0.0414423,111
-0.209466,0.124008,-0.234291,233
0.0645705,-0.0698778,0.0455162,111
0.161865,-0.0931199,-0.0345672,111
0.19011,-0.205089,0.24971,111
-0.0767899,-0.0539302,0.169885,233
0.0403205,-0.137597,0.128874,111
-0.322924,-0.103464,0.145526,233
0.155951,-0.0496981,-0.0306207,111
-0.411165,0.0506898,-0.126752,263
-0.0660556,0.0361347,0.0812081,233
-0.146171,-0.245367,0.167232,622
0.0217559,-0.173565,0.0407474,610
-0.0839083,0.07641,-0.256666,263
0.0207576,0.0470042,-0.0164863,233
-0.763948,-0.311734,0.106487,622
-0.0552589,-0.145495,0.10124,622
0.00313076,-0.160009,0.215946,622
-0.215354,-0.186252,0.211717,622
-0.217241,-0.190201,0.224762,622
0.0631216,0.0536951,-0.0650498,111
0.0168705,-0.110442,0.0210911,111
0.034702,-0.101557,0.100689,263
0.019282,-0.193473,0.0423465,263
0.0233901,-0.176625,0.0568335,233
0.0855058,0.109687,-0.229893,233
0.0224054,-0.174283,0.0551424,610
0.0293843,0.0535686,-0.087767,111
0.0858606,0.0724719,-0.159266,233
0.114363,-0.0890982,-0.062793,111
0.0688082,-0.105708,0.293652,263
0.0154244,0.0174282,0.104984,111
-0.034348,-0.286783,0.271841,263
-0.00894862,-0.036069,0.0575939,111
-0.0088845,0.0884458,-0.291667,233
-0.156094,0.0701672,-0.273019,233
-0.195472,0.110821,-0.258893,233
-0.193379,0.126827,-0.0716663,111
-0.168814,0.0292203,-0.0286795,233
-0.145308,0.0471592,-0.136022,233
-0.0993504,-0.292776,0.262717,263
0.0123648,-0.190252,0.031544,263
0.0444407,-0.189119,0.0984759,610
0.0162203,-0.0691344,0.101076,233
0.0265217,0.0529599,-0.0908153,111
-0.151935,0.0432434,-0.110059,622
0.0620576,-0.0631842,0.0171661,111
0.0384357,-0.132223,0.11087,111
-0.216512,0.0515402,-0.203705,610
-0.00317832,-0.0872552,0.0390956,233
-0.193188,0.0376828,-0.102047,633
0.0223288,-0.19076,0.0467374,610
0.220849,-0.14821,0.0446812,111
-0.225951,0.0985831,-0.227769,263
-0.0491394,0.0337625,0.0802722,263
0.0259447,0.0682622,-0.165367,233
-0.128323,0.0514109,-0.126688,111
0.0443331,0.131161,-0.233528,263
-0.0811817,0.0530432,-0.0997799,233
-0.152721,0.072368,-0.288515,622
0.0419849,-0.193027,0.125085,111
0.0768549,-0.0695454,0.0165746,111
-0.0509688,-0.262104,0.495098,622
0.0511791,-0.162567,0.106334,111
0.0237428,-0.0955433,0.0788188,111
-0.212286,-0.184501,0.192348,622
0.00253185,-0.139349,0.0648284,622
-0.239505,0.173831,0.104596,622
-0.205809,0.0323276,-0.0446531,622
-0.155709,-0.278103,0.259456,233
0.0434306,0.130927,-0.234417,233
0.0138932,-0.0531188,0.0984031,111
0.0153761,-0.0852133,0.0419907,111
-0.0802659,0.0513826,-0.0979402,233
-0.0323994,-0.280633,0.261185,622
-0.114486,-0.324885,0.289606,743
-0.218194,0.188344,0.0346235,233
-0.163425,0.0361274,-0.0777826,622
-0.0799319,-0.0493874,0.137599,111
-0.264724,-0.0107155,0.120709,610
0.0378413,-0.0624349,0.113475,111
0.081843,0.0767184,-0.18956,233
0.084587,0.109802,-0.236699,263
-0.0822666,0.0653099,-0.131453,233
0.0219666,-0.169861,0.0337094,233
-0.118224,0.0449922,-0.0934962,111
0.0132601,-0.0812692,0.0610592,111
0.0834514,0.125352,-0.230522,233
0.0276995,-0.0247521,0.11384,111
0.173031,-0.0550039,-0.0423691,111
-0.0249639,-0.182242,0.250088,633
-0.328433,-0.107294,0.143552,233
0.0453413,-0.180731,0.179986,610
0.32057,-0.0993604,-0.0778973,694
0.24932,0.0713748,0.160731,694
0.118049,-0.221873,0.292877,694
-0.0685368,0.263993,-0.456258,683
-0.0706622,0.265476,-0.449914,233
-0.0141424,-0.123769,0.119112,263
0.0284885,-0.246094,0.20884,263
-0.178578,0.174378,-0.21208,263
0.190386,-0.0159765,0.00209597,233
0.0761672,-0.0270444,0.0768058,111
0.262365,-0.127668,0.0918513,743
-0.296881,0.174212,0.0446948,743
0.149599,-0.0465152,-0.0481396,743
0.293744,-0.0454611,0.256831,743
-0.0106318,0.335374,-0.496941,754
-0.035577,0.301836,-0.459577,754
0.178232,-0.265268,0.277117,263
-0.321079,-0.103297,0.13973,233
0.0161337,0.0440236,-0.00132718,263
0.142326,-0.247813,0.27568,263
0.001242,-0.188831,0.0540708,263
-0.182727,0.112219,-0.250596,233
-0.211553,0.124264,-0.234023,233
0.0429069,0.0528233,-0.0546639,233
0.0590312,0.0481661,0.0349162,111
0.357818,0.372425,-0.603209,743
0.357402,0.387092,-0.591774,743
0.0170359,0.323641,-0.483973,743
0.0299563,0.330023,-0.463924,743
0.218058,-0.337871,0.173987,743
0.21206,0.219891,0.137837,743
-0.314337,0.17612,0.143302,683
-0.0951679,0.268404,-0.445672,683
0.0706765,0.288036,-0.180243,233
0.065312,-0.131774,0.175916,111
0.0152872,-0.0681902,0.0919353,111
0.031667,-0.0730088,0.102925,111
-0.213352,-0.0870602,0.16368,111
-0.212336,0.122741,-0.227437,792
-0.515247,0.16205,0.10653,355
-0.19869,-0.303492,0.200369,792
0.22399,-0.0492665,0.161156,111
-0.00417482,-0.170978,0.0472825,111
0.0996189,-0.0952281,0.00519938,111
-0.159681,-0.256254,0.181505,622
0.234333,-0.177349,0.0704674,263
0.254635,-0.135104,0.0797479,572
0.205551,0.228782,0.120674,233
0.151605,-0.272658,0.380393,263
0.092667,-0.0944569,0.0272415,233
0.0965865,-0.108366,-0.0112628,581
0.0694175,-0.0683298,-0.0259956,263
0.138799,-0.11189,0.004997,263
-0.0560408,-0.0837852,0.195992,673
0.104109,-0.0724527,0.0563676,263
0.0466959,-0.107367,0.164583,111
0.331708,0.226112,-0.0923326,572
0.342553,0.230206,-0.0650897,572
0.087505,-0.0879492,-0.0651335,572
0.0167634,-0.193253,0.0902685,572
-0.0824906,-0.043086,0.146161,111
0.183433,-0.258674,0.267787,263
-0.129263,0.034978,-0.0417384,233
0.0289837,0.0608626,-0.108135,111
0.0568836,-0.16028,0.10526,111
-0.16137,-0.278507,0.25152,263
0.0100655,-0.193789,0.0734481,263
-1.68094,-0.676538,0.86515,427
0.0332893,-0.0881604,0.091112,581
-0.0232718,0.143691,0.0779271,581
0.106965,-0.245008,0.280777,263
-0.156734,-0.14264,0.109872,610
0.0521387,-0.265988,0.225167,683
-0.00821359,0.042833,0.0819671,111
-0.0659715,0.286219,-0.463841,683
-0.0486815,0.292754,-0.456877,683
0.118837,-0.244465,0.267282,683
0.183543,-0.251792,0.243487,683
0.0387605,-0.364761,0.257053,263
0.0384417,0.204469,0.0915093,673
-0.212738,0.125321,-0.237777,263
0.40969,-0.111518,0.632461,743
-0.0810103,0.274499,-0.46414,233
-0.226971,-0.101085,0.224155,111
0.121085,-0.134396,0.12369,233
0.245696,-0.123314,0.0322706,233
-0.127358,0.0522561,-0.118326,111
0.0348174,-0.0878468,0.0956512,111
0.0804577,-0.129799,0.411718,111
0.0963838,-0.0980615,0.0172082,111
0.0334123,-0.0711603,0.0999769,111
-0.156817,-0.113782,0.390629,633
0.183241,-0.0602269,0.0915903,556
0.205165,-0.143047,0.00194316,111
0.470797,0.256496,0.000274707,743
0.418903,-0.058957,-0.111591,743
0.00391202,0.0410761,-0.000542494,233
0.0134248,0.045842,0.00422523,233
-0.40624,0.0530308,-0.141459,233
-0.0915029,0.0413103,-0.0741232,233
-0.189272,0.0698592,-0.288506,263
0.195308,-0.126313,-0.0209916,111
-0.0217367,0.0543833,-0.106501,111
0.0442132,0.13062,-0.231225,683
0.216769,-0.141513,0.0237769,263
0.0431237,0.130698,-0.22569,683
-0.0280697,0.0415514,-0.0158515,233
0.167806,-0.03214,-0.0410424,111
-0.333763,-0.07135,0.155729,233
-0.406659,0.0523845,-0.135557,263
-0.396439,0.100425,-0.136577,233
0.0305973,-0.0432258,0.12606,111
-0.0769115,0.0573344,-0.150201,633
0.00123042,-0.119401,0.0269283,633
-0.197765,-0.306789,0.179688,633
-0.419632,0.0942912,-0.152522,633
-1.01313,-0.387769,0.197209,633
0.049771,-0.21293,0.277211,610
0.123215,-0.243977,0.274193,111
0.339193,0.0886931,-0.212521,683
0.435616,-0.0140274,-0.121791,683
0.341953,0.089518,-0.20788,683
0.426939,-0.0647964,-0.0988863,683
-0.0339905,0.299782,-0.453382,694
0.658445,-0.128071,0.0164053,694
0.504277,-0.080806,-0.211615,694
0.579802,-0.117767,-0.0341639,694
0.418376,0.0376633,-0.0889793,694
0.579791,-0.115604,-0.0360439,5180
0.643407,-0.054357,0.0223105,694
0.619922,-0.0558764,0.0354945,694
0.617909,-0.071829,0.026457,694
0.0434304,-0.105696,0.148298,111
0.201153,-0.0277383,0.0709725,111
-0.317808,-0.101034,0.145371,622
0.256863,0.109716,-0.0732333,792
-0.569428,0.0179967,-0.701536,1311
-0.174591,0.116021,-0.115323,1311
-0.388918,0.309818,-0.727839,1311
0.323746,-0.241039,0.294086,683
0.0393941,-0.366982,0.259905,263
0.572629,-0.294192,0.220448,683
0.282177,-0.0466505,-0.221158,683
0.371816,0.148246,-0.639195,694
0.0400009,-0.0948986,0.0678226,572
0.165096,-0.169226,0.0899282,1160
0.375927,-0.246456,0.231661,694
-0.0611643,-0.23587,0.278027,233
0.0372912,-0.102154,0.156912,233
-0.0533357,0.029673,0.103609,111
-0.0508114,0.027827,0.118503,111
-0.332305,-0.109687,0.148663,233
-0.423708,0.0874385,-0.163308,622
0.0449664,-0.287186,0.259474,263
0.158361,-0.0758668,-0.04803,694
0.27679,0.102783,-0.10683,694
0.26526,0.0849189,-0.163853,694
0.396714,0.0474476,-0.140559,694
0.325443,-0.281913,0.259549,707
0.618821,-0.189935,0.0929626,707
0.363397,0.33489,-0.346084,707
0.639252,-0.0869096,0.0547868,707
0.359578,-0.174389,0.160022,707
0.321272,-0.228392,0.314393,683
0.229217,0.298282,-0.238526,707
0.304671,-0.0546998,0.335311,707
-2.45269,-0.516839,1.59962,435
-0.0268435,-0.188125,0.268017,111
0.0513336,0.0588435,-0.0708214,111
-0.158423,0.0187435,-0.414744,355
-0.00816955,0.0255853,0.0574368,111
0.382043,-0.243956,0.237554,792
0.210013,-0.362843,0.29534,792
0.364087,-0.342922,0.329722,792
0.0118295,-0.3908,0.183466,792
-0.100367,0.0282242,-0.432316,363
-0.329424,-0.102464,0.146234,233
0.063994,-0.0396533,0.102387,111
-0.266164,0.010285,0.0902948,263
-0.00454985,0.0424406,-0.0121294,111
-0.0288306,-0.199408,0.311687,233
0.35952,0.327812,-0.354405,754
0.225854,0.312288,-0.246536,754
-0.0127192,0.0562359,-0.0648824,233
-0.0774889,0.0277207,0.0988559,233
-0.0240876,0.0523375,-0.0577817,233
-0.157913,-0.326193,0.241849,263
-0.0475824,-0.241166,0.221024,622
0.0474825,0.129909,-0.339636,556
-0.397601,-0.0162804,-0.38108,346
-0.614983,-0.0621776,-0.171975,417
-0.0603427,-0.258303,0.290299,263
0.307361,-0.0253303,0.266344,233
-0.421224,0.080364,-0.193293,622
-0.024025,-0.183388,0.257641,610
-0.210862,-0.101407,0.166634,610
-0.160812,-0.17504,0.17202,610
0.0595227,0.0563676,-0.0628525,111
0.00308614,-0.19254,0.299457,111
0.20876,-0.0368953,0.0961494,111
0.00712027,-0.18665,0.237981,233
-0.0372607,0.158029,-0.60251,233
-0.00986355,-0.0931316,0.0294242,233
0.176929,-0.105076,-0.0518348,111
-0.345072,0.288554,-0.620758,792
0.344024,0.323064,-0.229508,743
-0.429454,0.106591,-0.160853,792
0.246736,0.107288,-0.117518,694
0.275262,0.252949,-0.0457334,792
-0.152408,-0.278673,0.148102,263
-0.00546263,-0.0944072,0.0434314,111
-0.167378,-0.073102,0.161351,233
-0.0441287,-0.180712,0.258405,233
-0.0444484,-0.114052,0.290854,111
-0.336344,-0.0986657,0.143192,233
0.0862738,0.141965,-0.243067,694
0.400587,-0.103792,0.584509,694
0.340771,0.31422,-0.253186,743
0.0507814,-0.156552,0.117237,111
-0.180856,0.120553,-0.171518,233
0.381384,0.152781,-0.632621,694
-0.000379678,-0.181344,0.259424,263
0.128626,-0.088258,-0.0660467,111
0.164079,-0.11733,0.0191201,263
0.0257332,-0.0881792,0.076059,633
-0.0289266,0.130335,-0.180564,633
-0.082515,-0.317078,0.295751,263
-0.200106,-0.257039,0.171671,263
0.185812,-0.334954,0.250807,683
0.185037,-0.332809,0.241887,683
0.2475,-0.220039,0.139023,683
-0.0738353,0.265105,-0.504781,683
-0.317134,0.0441166,-0.260935,363
0.0191173,-0.0705568,0.0707637,581
0.012661,-0.0385049,0.0980445,581
0.0170999,-0.0755286,0.0919297,581
0.0343221,-0.0995876,0.0989343,581
-0.0421457,0.0596909,-0.117547,263
0.0674048,0.285465,-0.223805,233
-0.239873,0.262526,-0.221408,633
0.048525,-0.190907,0.192656,263
0.103395,-0.205464,0.254254,233
-0.0989084,-0.294125,0.309303,673
0.19578,-0.077716,0.250709,556
0.319667,-0.234852,0.274649,572
0.165131,-0.0417898,-0.0389816,263
-0.0633005,-0.232021,0.265889,263
-0.080522,0.28057,-0.454834,233
-0.0959554,0.264716,-0.453781,233
-0.0837774,0.272486,-0.457738,233
0.0537123,0.270134,-0.279316,233
0.176709,-0.00510142,-0.0491638,111
0.0674069,-0.101889,0.268932,111
0.0875189,-0.163758,0.278788,263
0.233091,-0.189042,0.0743785,683
0.261144,-0.218704,0.177024,683
0.276349,-0.284413,0.252956,263
0.356297,-0.153649,0.146888,263
-1.40662,0.147824,0.294018,427
-1.34132,0.123318,0.327873,427
0.0375624,-0.0682995,0.135335,233
0.166753,-0.0923596,0.0184363,111
0.280424,-0.274333,0.249709,263
0.184341,0.00607813,-0.0213768,233
0.292683,-0.250887,0.212988,792
0.478628,-0.159263,0.0742382,792
0.322524,-0.0808135,0.465009,792
0.0925126,-0.162964,0.273668,792
0.228794,-0.00770774,0.0689136,792
0.366908,-0.0947697,0.564555,792
0.169987,-0.0639735,-0.0516694,792
0.290087,-0.193291,0.261377,792
0.374804,-0.206267,0.178749,792
0.091801,-0.0998809,-0.0308942,792
0.0909716,0.144157,-0.227906,792
0.031905,-0.0612356,0.0973917,111
0.188268,-0.0713005,0.144294,556
-0.110391,-0.325654,0.257533,610
0.104504,-0.0982995,0.015268,111
-0.0470033,0.129924,-0.363119,233
-0.117149,0.0489296,-0.10501,622
-0.0895826,0.0459858,-0.102299,610
0.0229964,0.049674,-0.0467042,111
0.234269,-0.0321043,0.0973757,707
-0.183536,0.114387,-0.0962061,707
0.179565,0.0770435,0.0299214,707
0.282001,-0.137086,0.130192,707
0.271231,0.0816266,-0.200217,707
0.284567,0.120884,-0.142206,707
0.216665,0.092793,-0.0141682,707
-0.152902,-0.327739,0.253844,707
0.190517,-0.0358084,-0.0155559,707
0.0128193,-0.210773,0.106553,263
0.228828,-0.0472271,0.172087,263
-1.0666,0.118194,0.0269785,417
0.387633,0.012087,-0.217807,694
0.316419,0.0850727,-0.128161,694
0.263337,0.0960753,-0.158421,694
0.312491,0.227235,0.128045,694
0.279669,0.0785848,-0.173034,694
0.291832,0.218861,0.0512419,694
0.245,-0.114613,0.0195582,694
0.260959,-0.145123,0.121406,556
0.189821,-0.0381146,0.000365922,694
-0.0529622,0.0451627,-0.0478991,233
0.0682981,0.0759849,-0.21951,263
0.00591884,-0.175968,0.0456833,263
-0.234992,0.115944,-0.243582,111
0.0984569,0.089998,-0.232008,556
0.0227167,-0.0890014,0.0798852,610
0.014831,-0.0878098,0.0828263,556
0.0812381,0.111327,-0.309685,556
-0.0200914,0.0790844,-0.363949,556
-0.136474,0.0464772,-0.102828,263
0.104316,0.086795,-0.2255,263
-0.396544,0.14856,-0.162074,263
-0.0806256,0.270864,-0.456071,683
-0.431667,0.112927,-0.167321,263
-0.0889112,0.267851,-0.458414,233
0.0127385,0.044082,0.00332265,610
-0.072022,-0.291113,0.269131,263
0.435546,0.00748268,-0.119319,694
0.405203,0.241132,-0.133414,694
0.288989,-0.0731682,-0.121596,694
0.218842,-0.134872,0.029535,111
0.125289,-0.0938763,-0.0627605,111
0.158607,-0.0825165,-0.036517,111
-0.0788957,0.274127,-0.45783,233
-0.0169008,-0.0682308,0.216942,707
-0.0879332,0.278343,-0.460339,233
-0.465854,0.055779,-0.190184,233
-0.0869399,0.243625,-0.493733,346
-0.620258,0.360254,-1.68614,1311
-0.633924,0.271774,-1.76098,1311
-0.284574,-0.00413847,0.21585,233
0.0107872,-0.035452,0.0728291,610
-0.158616,-0.29922,0.181692,633
-0.689987,0.0244874,0.145642,427
-0.425815,0.0832808,-0.179683,233
-0.375533,0.153844,-0.13651,233
0.614995,0.336435,-2.58124,1777
0.954616,0.393057,-2.06315,1803
0.194679,0.310111,-0.878751,1803
0.467824,0.282547,0.0795208,792
0.336573,-0.195103,0.41605,792
-0.40378,0.131447,-0.105385,792
-0.0592213,0.297223,-0.427796,792
-0.39475,0.0882307,-0.121158,792
0.107595,-0.0768827,0.0638939,792
0.26889,0.0827814,-0.211946,792
0.04106,-0.153449,0.180447,754
-0.0802454,-0.0622463,0.215007,792
0.315574,-0.21954,0.198305,792
-0.284573,0.178822,0.00814629,673
0.173859,0.0785304,0.00374275,673
-0.0846887,0.27211,-0.457532,673
-0.0773494,0.279719,-0.473041,673
-0.091848,0.280535,-0.458719,673
-0.0970314,0.28942,-0.461628,673
0.405434,-0.237273,0.408666,673
0.193227,-0.0407345,0.00942286,673
0.0870537,-0.0814246,-0.0345198,581
0.0725142,0.249995,-0.351932,581
0.210197,0.22302,-0.355193,581
-0.227731,0.0611047,-0.265679,263
-0.318897,-0.106359,0.14354,610
0.22206,-0.0684271,0.138994,111
-0.0779473,0.281217,-0.462774,233
0.087571,-0.0820861,-0.0638319,673
-0.0054789,0.0242995,0.0292379,556
0.291373,0.259834,-0.183268,581
0.244572,0.261916,-0.230771,743
0.0762059,-0.363496,0.300112,743
-0.108655,0.284979,-0.443267,673
0.347352,0.106307,-0.0520534,743
0.339121,0.319582,-0.247991,743
0.0341723,-0.0477977,0.146307,910
0.0380885,-0.112694,0.123537,743
0.447124,0.116727,-0.0723676,694
0.516384,-0.167652,0.0586955,694
0.174383,-0.0640614,0.129775,683
0.0734381,-0.30828,0.247448,754
-0.684296,0.200437,-1.29552,1311
-0.803246,-0.0386551,-1.1568,1311
-0.580167,0.190098,-2.70007,2103
-0.623623,0.256298,-1.75089,1311
-0.645948,0.445209,-1.52568,1311
-0.649778,0.388877,-1.89717,1311
0.476938,0.304989,-1.74903,1606
0.353288,-0.0700555,0.594312,694
0.0426403,-0.360064,0.24548,610
0.122776,0.0668982,-0.0130567,581
0.0831973,-0.0955433,0.0523225,673
-0.101383,0.285822,-0.46506,673
-0.100448,0.284212,-0.453674,673
-0.0746653,0.290672,-0.459092,673
-0.071277,0.281889,-0.463898,673
-0.0782117,0.28221,-0.468079,673
-0.0483563,0.308176,-0.463685,673
-0.103049,0.282951,-0.466132,673
-0.100056,0.284195,-0.448842,673
-0.103587,0.28344,-0.463812,673
-0.0983806,0.290353,-0.451674,673
-0.0927463,0.281575,-0.449764,673
-0.0783416,0.279524,-0.465598,673
-0.0979747,0.0731091,-0.449594,363
-0.971497,-0.178978,0.233749,622
-0.201583,-0.319427,0.21057,622
-0.0589933,0.0427256,-0.0336458,111
-1.8655,-0.364136,0.813247,417
-0.10432,0.0551786,-0.156013,610
-0.0429872,0.0569482,-0.117618,363
-0.0234995,0.0486228,0.0400681,610
-0.0121156,-0.335637,0.266059,610
-0.0266391,0.144207,0.120672,572
0.125064,-0.206898,0.245744,111
0.0985742,0.0973731,-0.311897,572
0.0798959,0.125479,-0.318949,572
-0.15469,0.0719317,-0.461276,355
-0.049347,-0.216329,0.421631,233
-0.155557,-0.322141,0.229961,263
-0.103193,-0.308659,0.248079,610
0.341751,0.217064,-0.106669,581
0.47667,0.184157,-0.0807893,743
-0.209819,0.0271732,-0.0281467,610
0.447759,0.253646,-0.0267109,792
0.551225,-0.141797,-0.0694441,792
0.358498,0.185013,-0.0938235,792
0.182539,-0.33523,0.240959,792
0.595867,-0.180325,0.056718,792
0.283828,0.0777987,-0.170987,792
0.444354,0.273372,-0.0166097,792
0.325246,-0.138837,0.0410431,792
0.469012,0.243092,0.0759156,792
0.0659125,0.284965,-0.179861,792
0.358335,0.149355,-0.500367,792
0.15041,-0.386461,0.275268,683
0.0736335,-0.292755,0.268577,263
-0.00543802,-0.376733,0.276462,683
0.0168602,-0.350759,0.2316,263
0.26787,-0.277766,0.217502,683
-0.238065,0.178342,0.126252,633
-0.062645,0.0779713,-0.45215,346
0.380275,0.0676255,0.0641931,683
0.226153,-0.19743,0.217065,683
0.521636,-0.158512,0.0183473,743
0.444021,0.159493,-0.14481,743
0.413132,0.123663,-0.244787,743
-0.00756482,-0.361598,0.262746,263
0.20289,0.242102,0.106902,556
0.424662,-0.0132714,-0.119645,556
0.531169,0.438181,-2.64406,1606
0.551009,0.422134,-2.47262,1606
0.516384,0.421753,-2.52134,1606
0.434718,0.423726,-2.2041,1606
0.526846,0.442442,-2.65284,1606
0.503222,0.439942,-2.68034,1803
0.433034,-0.0110435,-0.127153,683
0.459254,0.138312,-0.0866155,683
0.327812,-0.289198,0.283165,683
0.332299,0.19728,-0.24285,683
0.249374,0.24407,-0.229918,683
0.41761,-0.0576761,-0.1146,683
0.0928742,0.204035,0.00324983,683
0.232622,0.303326,-0.230612,683
-0.0738296,0.280404,-0.447041,683
0.209088,-0.259241,0.271739,683
0.336114,0.26837,-0.223874,683
0.249274,0.241901,-0.23415,683
0.344022,-0.304138,0.359782,683
0.124816,-0.201388,0.218181,683
0.153754,-0.106977,-0.0319599,683
0.268878,-0.173021,0.161904,683
0.168477,-0.0654035,-0.0554357,683
0.0400078,-0.382164,0.287988,683
-2.112,-0.419437,1.02952,417
-0.416248,0.0385087,-0.530445,417
-1.197,-0.554399,0.599803,417
-1.01619,-0.381508,0.203637,417
0.353859,-0.016759,-0.192237,683
-0.257859,0.182815,0.203217,683
0.012177,-0.178241,-0.00385481,683
0.276542,0.0785781,-0.184164,683
0.263626,0.123199,-0.20979,683
0.274786,0.0988777,-0.0553298,683
0.34127,0.0797224,-0.0446137,683
0.273491,0.0806937,-0.195894,683
0.284154,0.101072,-0.0908495,683
0.26428,0.103107,-0.0774285,683
0.260275,-0.122823,0.109759,683
-0.399648,0.030484,-0.0961546,610
-1.06568,-0.562655,0.267724,610
0.539638,0.0544488,0.00388391,683
0.188903,-0.14141,-0.0250408,683
-0.0332266,0.297799,-0.464092,683
0.249136,0.17254,-0.200087,683
0.241789,0.261115,-0.240883,683
-0.0969157,0.261415,-0.468619,683
0.52795,0.0818826,-0.0085435,683
0.232616,0.305304,-0.231906,683
0.300248,-0.237991,0.1935,683
0.359962,0.204076,-0.173708,683
0.529687,0.0558608,-0.0145569,683
0.200923,-0.139098,-0.0335236,683
0.232749,0.305859,-0.234465,683
-0.0702332,0.266835,-0.440244,683
0.525623,-0.192006,0.135857,683
0.531458,-0.196296,0.150462,683
0.202071,-0.139441,-0.0297066,683
0.386444,-0.06295,0.522649,683
-0.0527419,0.311969,-0.468699,683
-0.135371,0.283575,-0.485535,683
0.356039,-0.320825,0.281291,683
0.0332344,0.324493,-0.477489,683
-1.19195,0.136253,0.123082,417
-0.977475,0.116951,-0.0485956,417
0.36175,0.20777,-0.0403211,754
0.294409,-0.00937166,0.0815283,754
0.304152,-0.0709431,-0.120339,754
-0.139856,0.294347,-0.511473,754
0.53947,0.429151,-2.63611,1606
0.635432,0.33616,-2.61034,1606
0.533274,0.364182,-2.64893,1606
0.483385,0.493978,-2.75078,1698
0.586324,0.458085,-2.6392,1606
0.539272,0.435562,-2.69405,1606
0.519265,0.425264,-2.7119,1606
0.511396,0.377604,-2.70841,1606
0.659433,0.00953186,-1.49397,1606
0.440991,0.297179,-1.73056,1606
0.33468,0.371916,-2.07587,1606
0.503578,0.293605,-1.63921,1606
-0.429381,0.102163,-1.54012,1497
-2.50326,-0.387208,-0.345049,1497
-1.28882,0.0134194,-1.46966,1497
-0.583514,0.296112,-1.8403,1497
-0.719277,0.160231,-1.86417,1497
-0.685328,0.00489751,-1.27457,1497
-0.533663,0.246966,-2.2126,1497
-0.943669,-0.0632883,-1.49253,1497
-1.14361,-0.383041,-0.49656,1497
-0.927739,-0.214646,-1.07413,1497
-0.63687,0.363127,-1.92873,1497
-0.40976,0.308213,-0.635749,792
-0.186726,0.112712,-0.0753642,910
-0.0708724,0.269491,-0.209892,910
-0.462157,0.140107,-0.247948,910
0.529727,-0.157452,0.00149321,743
-2.27461,-0.525002,-0.413402,1479
-0.562387,0.0335457,-1.4942,1497
-0.783906,-0.0519993,-1.08854,1497
-0.650047,0.236644,-1.90035,1497
-0.825015,-0.273415,-0.817819,1497
-0.687662,-0.075729,-1.38051,1497
-0.590192,0.301436,-2.0195,1311
-0.913671,0.000427206,-1.10508,1488
0.395445,-0.213332,0.245869,683
0.381594,-0.223499,0.194844,263
0.4619,0.126502,-0.0892399,707
0.289128,-0.0723834,-0.136,707
0.341401,0.28619,-0.0334473,707
0.619413,-0.0573614,0.0365764,707
-0.0540588,0.312706,-0.462922,707
0.355057,0.369115,-0.595494,707
0.696681,0.661313,-2.75348,1698
0.561594,0.428209,-2.89199,1698
0.633109,0.733467,-2.70286,1698
0.729006,0.677906,-2.77935,1698
0.681917,0.660925,-2.7592,1698
0.665529,0.64927,-2.76788,1698
0.550332,0.481578,-2.8281,1698
0.569953,0.527218,-2.84764,1698
0.578587,0.461359,-2.72968,1698
0.539123,0.522141,-2.85935,1758
0.533144,0.47755,-2.68747,1698
0.67951,0.663996,-2.74974,1698
0.410644,0.644629,-2.57081,1606
0.532928,0.364282,-2.64926,1606
0.732706,0.408703,-2.21211,1606
0.511907,0.363788,-2.64997,1606
0.7056,0.409424,-2.35053,1606
-0.896975,-0.440997,0.0932017,633
-0.0216218,0.119922,0.0591684,694
0.0478083,-0.0729178,0.0324825,694
